# .PCD v0.7 - Point Cloud Data file format
VERSION 0.7
FIELDS x y z
SIZE 4 4 4
TYPE F F F
COUNT 1 1 1
WIDTH 1543
HEIGHT 1
VIEWPOINT 0 0 0 1 0 0 0
POINTS 1543
DATA ascii
27.896162 -12.600473 0.93993902
27.896162 -12.600473 1.039939
27.896162 -12.600473 1.1399391
27.896162 -12.600473 1.2399391
27.896162 -12.600473 1.3399391
27.935884 -12.53317 0.53993893
27.935884 -12.53317 0.63993895
27.935884 -12.53317 0.73993897
27.935884 -12.53317 0.839939
27.935884 -12.53317 0.93993902
27.935884 -12.53317 1.039939
27.935884 -12.53317 1.1399391
27.935884 -12.53317 1.2399391
27.935884 -12.53317 1.3399391
27.968689 -12.462237 0.53993893
27.968689 -12.462237 0.63993895
27.968689 -12.462237 0.73993897
27.968689 -12.462237 0.839939
27.968689 -12.462237 0.93993902
27.968689 -12.462237 1.039939
27.968689 -12.462237 1.1399391
27.968689 -12.462237 1.2399391
27.968689 -12.462237 1.3399391
27.994249 -12.388385 0.53993893
27.994249 -12.388385 0.63993895
27.994249 -12.388385 0.73993897
27.994249 -12.388385 0.839939
27.994249 -12.388385 0.93993902
27.994249 -12.388385 1.039939
27.994249 -12.388385 1.1399391
27.994249 -12.388385 1.2399391
27.994249 -12.388385 1.3399391
28.012308 -12.312348 0.53993893
28.012308 -12.312348 0.63993895
28.012308 -12.312348 0.73993897
28.012308 -12.312348 0.839939
28.012308 -12.312348 0.93993902
28.012308 -12.312348 1.039939
28.012308 -12.312348 1.1399391
28.012308 -12.312348 1.2399391
28.012308 -12.312348 1.3399391
28.022686 -12.23489 0.53993893
28.022686 -12.23489 0.63993895
28.022686 -12.23489 0.73993897
28.022686 -12.23489 0.839939
28.022686 -12.23489 0.93993902
28.022686 -12.23489 1.039939
28.022686 -12.23489 1.1399391
28.022686 -12.23489 1.2399391
28.022686 -12.23489 1.3399391
14.023806 -14.817387 1.6581358
14.023806 -14.817387 1.6581358
14.023806 -14.817387 1.6581358
14.023806 -14.817387 1.6581358
14.023806 -14.817387 1.6581358
14.023806 -14.817387 1.6581358
14.023806 -14.817387 1.6581358
14.023806 -14.817387 1.6581358
14.023806 -14.817387 1.6581358
14.023806 -14.817387 1.6581358
14.023806 -14.817387 1.6581358
14.023806 -14.817387 1.6581358
14.023806 -14.817387 1.6581358
14.023806 -14.817387 1.6581358
14.023806 -14.817387 1.6581358
14.023806 -14.817387 1.6581358
14.023806 -14.817387 1.6581358
14.023806 -14.817387 1.6581358
14.023806 -14.817387 1.6581358
14.023806 -14.817387 1.6581358
14.023806 -14.817387 1.6581358
14.023806 -14.817387 1.6581358
14.023806 -14.817387 1.6581358
14.023806 -14.817387 1.6581358
14.023806 -14.817387 1.6581358
14.023806 -14.817387 1.6581358
14.023806 -14.817387 1.6581358
14.023806 -14.817387 1.6581358
14.023806 -14.817387 1.6581358
14.023806 -14.817387 1.6581358
14.023806 -14.817387 1.6581358
14.023806 -14.817387 1.6581358
14.023806 -14.817387 1.6581358
14.023806 -14.817387 1.6581358
14.023806 -14.817387 1.6581358
14.023806 -14.817387 1.6581358
14.023806 -14.817387 1.6581358
14.023806 -14.817387 1.6581358
14.023806 -14.817387 1.6581358
14.023806 -14.817387 1.6581358
14.023806 -14.817387 1.6581358
14.023806 -14.817387 1.6581358
14.023806 -14.817387 1.6581358
14.023806 -14.817387 1.6581358
14.023806 -14.817387 1.6581358
14.023806 -14.817387 1.6581358
14.023806 -14.817387 1.6581358
14.023806 -14.817387 1.6581358
14.023806 -14.817387 1.6581358
14.023806 -14.817387 1.6581358
14.023806 -14.817387 1.6581358
14.023806 -14.817387 1.6581358
14.023806 -14.817387 1.6581358
14.023806 -14.817387 1.6581358
14.023806 -14.817387 1.6581358
14.023806 -14.817387 1.6581358
14.023806 -14.817387 1.6581358
14.023806 -14.817387 1.6581358
14.023806 -14.817387 1.6581358
14.023806 -14.817387 1.6581358
14.023806 -14.817387 1.6581358
14.023806 -14.817387 1.6581358
14.023806 -14.817387 1.6581358
14.101706 -14.817387 1.6542375
14.101316 -14.809609 1.6542375
14.100153 -14.80191 1.6542375
14.098227 -14.794366 1.6542375
14.095556 -14.787051 1.6542375
14.09217 -14.78004 1.6542375
14.088099 -14.773401 1.6542375
14.083386 -14.767202 1.6542375
14.078079 -14.761504 1.6542375
14.072229 -14.756366 1.6542375
14.065895 -14.751836 1.6542375
14.059141 -14.747961 1.6542375
14.052033 -14.744781 1.6542375
14.044643 -14.742326 1.6542375
14.037046 -14.74062 1.6542375
14.029316 -14.739681 1.6542375
14.021531 -14.73952 1.6542375
14.013768 -14.740136 1.6542375
14.006106 -14.741524 1.6542375
13.998621 -14.74367 1.6542375
13.991387 -14.746552 1.6542375
13.984478 -14.750142 1.6542375
13.977962 -14.754405 1.6542375
13.971903 -14.759296 1.6542375
13.966363 -14.764768 1.6542375
13.961396 -14.770765 1.6542375
13.957054 -14.777229 1.6542375
13.953379 -14.784094 1.6542375
13.950406 -14.791291 1.6542375
13.948168 -14.798749 1.6542375
13.946685 -14.806394 1.6542375
13.945972 -14.814147 1.6542375
13.946038 -14.821934 1.6542375
13.946881 -14.829675 1.6542375
13.948492 -14.837294 1.6542375
13.950855 -14.844712 1.6542375
13.953948 -14.851859 1.6542375
13.957739 -14.858661 1.6542375
13.962189 -14.86505 1.6542375
13.967256 -14.870964 1.6542375
13.972887 -14.876342 1.6542375
13.979027 -14.88113 1.6542375
13.985614 -14.885283 1.6542375
13.992583 -14.888756 1.6542375
13.999865 -14.891517 1.6542375
14.007384 -14.893537 1.6542375
14.015069 -14.894795 1.6542375
14.02284 -14.895281 1.6542375
14.030622 -14.894988 1.6542375
14.038335 -14.89392 1.6542375
14.045903 -14.892087 1.6542375
14.05325 -14.889507 1.6542375
14.060303 -14.886208 1.6542375
14.066991 -14.88222 1.6542375
14.073248 -14.877585 1.6542375
14.079011 -14.872349 1.6542375
14.084222 -14.866563 1.6542375
14.08883 -14.860285 1.6542375
14.092788 -14.85358 1.6542375
14.096056 -14.846512 1.6542375
14.098603 -14.839153 1.6542375
14.100402 -14.831577 1.6542375
14.101437 -14.823859 1.6542375
14.178827 -14.817387 1.6425817
14.178053 -14.80191 1.6425817
14.175737 -14.786589 1.6425817
14.171904 -14.771575 1.6425817
14.16659 -14.757018 1.6425817
14.15985 -14.743065 1.6425817
14.151751 -14.729855 1.6425817
14.142373 -14.717519 1.6425817
14.13181 -14.706181 1.6425817
14.120169 -14.695954 1.6425817
14.107564 -14.68694 1.6425817
14.094123 -14.67923 1.6425817
14.079979 -14.6729 1.6425817
14.065273 -14.668015 1.6425817
14.050154 -14.66462 1.6425817
14.034771 -14.662753 1.6425817
14.019279 -14.662431 1.6425817
14.003832 -14.663657 1.6425817
13.988585 -14.666419 1.6425817
13.973689 -14.67069 1.6425817
13.959293 -14.676426 1.6425817
13.945543 -14.68357 1.6425817
13.932575 -14.692052 1.6425817
13.920518 -14.701786 1.6425817
13.909493 -14.712675 1.6425817
13.899611 -14.72461 1.6425817
13.890969 -14.737473 1.6425817
13.883655 -14.751133 1.6425817
13.877741 -14.765456 1.6425817
13.873286 -14.780297 1.6425817
13.870336 -14.79551 1.6425817
13.868917 -14.810941 1.6425817
13.869048 -14.826436 1.6425817
13.870725 -14.841841 1.6425817
13.873931 -14.857001 1.6425817
13.878634 -14.871765 1.6425817
13.884789 -14.885986 1.6425817
13.892331 -14.899523 1.6425817
13.901188 -14.912238 1.6425817
13.91127 -14.924006 1.6425817
13.922477 -14.934708 1.6425817
13.934695 -14.944238 1.6425817
13.947804 -14.952499 1.6425817
13.961673 -14.959413 1.6425817
13.976162 -14.964906 1.6425817
13.991127 -14.968925 1.6425817
14.006419 -14.971431 1.6425817
14.021885 -14.972397 1.6425817
14.03737 -14.971814 1.6425817
14.052719 -14.969688 1.6425817
14.06778 -14.966041 1.6425817
14.0824 -14.960908 1.6425817
14.096436 -14.954342 1.6425817
14.109745 -14.946406 1.6425817
14.122196 -14.937182 1.6425817
14.133664 -14.926761 1.6425817
14.144035 -14.915247 1.6425817
14.153204 -14.902756 1.6425817
14.16108 -14.889411 1.6425817
14.167584 -14.875346 1.6425817
14.172653 -14.860703 1.6425817
14.176233 -14.845626 1.6425817
14.178291 -14.830268 1.6425817
14.2544 -14.817387 1.6232848
14.253248 -14.794366 1.6232848
14.249804 -14.771575 1.6232848
14.244102 -14.749241 1.6232848
14.236197 -14.727589 1.6232848
14.226171 -14.706834 1.6232848
14.214124 -14.687183 1.6232848
14.200174 -14.668834 1.6232848
14.184463 -14.651968 1.6232848
14.167146 -14.636756 1.6232848
14.148396 -14.623348 1.6232848
14.128403 -14.611879 1.6232848
14.107364 -14.602464 1.6232848
14.085489 -14.595196 1.6232848
14.062999 -14.590147 1.6232848
14.040117 -14.58737 1.6232848
14.017073 -14.58689 1.6232848
13.994095 -14.588714 1.6232848
13.971414 -14.592823 1.6232848
13.949257 -14.599174 1.6232848
13.927844 -14.607708 1.6232848
13.907391 -14.618335 1.6232848
13.888101 -14.630952 1.6232848
13.870166 -14.645431 1.6232848
13.853766 -14.661629 1.6232848
13.839067 -14.679382 1.6232848
13.826212 -14.698515 1.6232848
13.815331 -14.718835 1.6232848
13.806534 -14.74014 1.6232848
13.799908 -14.762217 1.6232848
13.795519 -14.784845 1.6232848
13.79341 -14.807798 1.6232848
13.793604 -14.830847 1.6232848
13.796098 -14.853762 1.6232848
13.800867 -14.876313 1.6232848
13.807863 -14.898275 1.6232848
13.817018 -14.919429 1.6232848
13.828238 -14.939564 1.6232848
13.841413 -14.958477 1.6232848
13.856409 -14.975982 1.6232848
13.873078 -14.991901 1.6232848
13.891254 -15.006077 1.6232848
13.910754 -15.018367 1.6232848
13.931383 -15.028649 1.6232848
13.952936 -15.03682 1.6232848
13.975197 -15.0428 1.6232848
13.997943 -15.046526 1.6232848
14.020948 -15.047963 1.6232848
14.043982 -15.047097 1.6232848
14.066813 -15.043935 1.6232848
14.089216 -15.038509 1.6232848
14.110965 -15.030874 1.6232848
14.131843 -15.021107 1.6232848
14.151641 -15.009303 1.6232848
14.170162 -14.995583 1.6232848
14.187221 -14.980081 1.6232848
14.202646 -14.962954 1.6232848
14.216286 -14.944372 1.6232848
14.228002 -14.924522 1.6232848
14.237677 -14.903602 1.6232848
14.245215 -14.881819 1.6232848
14.250542 -14.859393 1.6232848
14.253603 -14.836548 1.6232848
14.327669 -14.817387 1.5965396
14.326151 -14.787051 1.5965396
14.321612 -14.757018 1.5965396
14.314097 -14.727589 1.5965396
14.303682 -14.699057 1.5965396
14.290471 -14.671707 1.5965396
14.274595 -14.645812 1.5965396
14.256213 -14.621633 1.5965396
14.235509 -14.599408 1.5965396
14.21269 -14.579362 1.5965396
14.187984 -14.561694 1.5965396
14.161636 -14.546581 1.5965396
14.133913 -14.534174 1.5965396
14.105088 -14.524596 1.5965396
14.075453 -14.517944 1.5965396
14.0453 -14.514284 1.5965396
14.014933 -14.513653 1.5965396
13.984654 -14.516056 1.5965396
13.954767 -14.52147 1.5965396
13.92557 -14.52984 1.5965396
13.897354 -14.541084 1.5965396
13.870401 -14.555089 1.5965396
13.844982 -14.571714 1.5965396
13.821349 -14.590795 1.5965396
13.799739 -14.612138 1.5965396
13.780368 -14.635532 1.5965396
13.763429 -14.660745 1.5965396
13.749091 -14.687521 1.5965396
13.737499 -14.715596 1.5965396
13.728767 -14.744687 1.5965396
13.722983 -14.774506 1.5965396
13.720205 -14.804751 1.5965396
13.72046 -14.835124 1.5965396
13.723746 -14.865319 1.5965396
13.730031 -14.895036 1.5965396
13.73925 -14.923977 1.5965396
13.751313 -14.951852 1.5965396
13.766099 -14.978384 1.5965396
13.78346 -15.003307 1.5965396
13.803221 -15.026373 1.5965396
13.825187 -15.047351 1.5965396
13.849137 -15.066031 1.5965396
13.874833 -15.082227 1.5965396
13.902017 -15.095776 1.5965396
13.930418 -15.106544 1.5965396
13.959752 -15.114422 1.5965396
13.989726 -15.119333 1.5965396
14.020041 -15.121226 1.5965396
14.050393 -15.120085 1.5965396
14.08048 -15.115918 1.5965396
14.11 -15.108768 1.5965396
14.138659 -15.098708 1.5965396
14.16617 -15.085836 1.5965396
14.192259 -15.070283 1.5965396
14.216665 -15.052202 1.5965396
14.239143 -15.031775 1.5965396
14.259471 -15.009206 1.5965396
14.277444 -14.98472 1.5965396
14.292882 -14.958563 1.5965396
14.305632 -14.930995 1.5965396
14.315566 -14.902291 1.5965396
14.322585 -14.87274 1.5965396
14.326618 -14.842635 1.5965396
14.397902 -14.817387 1.5626134
14.396032 -14.78004 1.5626134
14.390445 -14.743065 1.5626134
14.381193 -14.706834 1.5626134
14.368371 -14.671707 1.5626134
14.352106 -14.638036 1.5626134
14.332561 -14.606156 1.5626134
14.30993 -14.576387 1.5626134
14.284441 -14.549026 1.5626134
14.256348 -14.524347 1.5626134
14.22593 -14.502596 1.5626134
14.193494 -14.48399 1.5626134
14.159362 -14.468715 1.5626134
14.123876 -14.456923 1.5626134
14.08739 -14.448733 1.5626134
14.050268 -14.444227 1.5626134
14.012882 -14.44345 1.5626134
13.975605 -14.446409 1.5626134
13.93881 -14.453074 1.5626134
13.902864 -14.46338 1.5626134
13.868127 -14.477222 1.5626134
13.834945 -14.494463 1.5626134
13.80365 -14.514932 1.5626134
13.774554 -14.538422 1.5626134
13.74795 -14.564698 1.5626134
13.724101 -14.5935 1.5626134
13.703247 -14.624539 1.5626134
13.685596 -14.657505 1.5626134
13.671324 -14.692069 1.5626134
13.660574 -14.727884 1.5626134
13.653454 -14.764594 1.5626134
13.650033 -14.801831 1.5626134
13.650348 -14.839224 1.5626134
13.654393 -14.876398 1.5626134
13.66213 -14.912983 1.5626134
13.673481 -14.948613 1.5626134
13.688332 -14.982931 1.5626134
13.706534 -15.015595 1.5626134
13.727907 -15.04628 1.5626134
13.752236 -15.074677 1.5626134
13.77928 -15.100503 1.5626134
13.808765 -15.123501 1.5626134
13.840401 -15.143439 1.5626134
13.873868 -15.16012 1.5626134
13.908833 -15.173377 1.5626134
13.944947 -15.183077 1.5626134
13.981849 -15.189122 1.5626134
14.01917 -15.191454 1.5626134
14.056538 -15.190048 1.5626134
14.093578 -15.184918 1.5626134
14.129922 -15.176117 1.5626134
14.165205 -15.163731 1.5626134
14.199075 -15.147884 1.5626134
14.231194 -15.128736 1.5626134
14.261241 -15.106476 1.5626134
14.288916 -15.081327 1.5626134
14.313941 -15.053542 1.5626134
14.336068 -15.023396 1.5626134
14.355075 -14.991194 1.5626134
14.370771 -14.957253 1.5626134
14.383001 -14.921916 1.5626134
14.391643 -14.885534 1.5626134
14.396608 -14.848472 1.5626134
14.464396 -14.817387 1.5218451
14.462195 -14.773401 1.5218451
14.455614 -14.729855 1.5218451
14.444718 -14.687183 1.5218451
14.429617 -14.645812 1.5218451
14.41046 -14.606156 1.5218451
14.387441 -14.56861 1.5218451
14.360788 -14.53355 1.5218451
14.330769 -14.501326 1.5218451
14.297681 -14.47226 1.5218451
14.261858 -14.446642 1.5218451
14.223656 -14.424728 1.5218451
14.183457 -14.406738 1.5218451
14.141664 -14.392852 1.5218451
14.098692 -14.383206 1.5218451
14.054972 -14.377899 1.5218451
14.010941 -14.376984 1.5218451
13.967038 -14.380468 1.5218451
13.923702 -14.388318 1.5218451
13.881367 -14.400455 1.5218451
13.840455 -14.416759 1.5218451
13.801375 -14.437064 1.5218451
13.764518 -14.46117 1.5218451
13.73025 -14.488835 1.5218451
13.698916 -14.519784 1.5218451
13.670829 -14.553705 1.5218451
13.646268 -14.590261 1.5218451
13.62548 -14.629086 1.5218451
13.608671 -14.669794 1.5218451
13.59601 -14.711975 1.5218451
13.587624 -14.75521 1.5218451
13.583596 -14.799067 1.5218451
13.583966 -14.843105 1.5218451
13.588731 -14.886888 1.5218451
13.597843 -14.929976 1.5218451
13.611211 -14.971938 1.5218451
13.628702 -15.012357 1.5218451
13.65014 -15.050827 1.5218451
13.675312 -15.086966 1.5218451
13.703966 -15.12041 1.5218451
13.735816 -15.150826 1.5218451
13.770543 -15.177912 1.5218451
13.8078 -15.201395 1.5218451
13.847217 -15.221041 1.5218451
13.888397 -15.236653 1.5218451
13.93093 -15.248077 1.5218451
13.974391 -15.255198 1.5218451
14.018347 -15.257944 1.5218451
14.062356 -15.256288 1.5218451
14.10598 -15.250246 1.5218451
14.148784 -15.239881 1.5218451
14.190338 -15.225292 1.5218451
14.230228 -15.206629 1.5218451
14.268057 -15.184076 1.5218451
14.303445 -15.157861 1.5218451
14.336039 -15.128242 1.5218451
14.365512 -15.095518 1.5218451
14.391572 -15.060015 1.5218451
14.413957 -15.022087 1.5218451
14.432444 -14.982115 1.5218451
14.446848 -14.940495 1.5218451
14.457025 -14.897647 1.5218451
14.462873 -14.853996 1.5218451
14.526489 -14.817387 1.474642
14.523978 -14.767202 1.474642
14.516469 -14.717519 1.474642
14.504038 -14.668834 1.474642
14.486808 -14.621633 1.474642
14.464952 -14.576387 1.474642
14.438688 -14.53355 1.474642
14.408279 -14.493549 1.474642
14.374028 -14.456783 1.474642
14.336279 -14.423621 1.474642
14.295406 -14.394393 1.474642
14.251821 -14.369391 1.474642
14.205956 -14.348866 1.474642
14.158273 -14.333022 1.474642
14.109245 -14.322018 1.474642
14.059364 -14.315962 1.474642
14.009128 -14.314918 1.474642
13.959038 -14.318893 1.474642
13.909595 -14.327849 1.474642
13.861293 -14.341698 1.474642
13.814615 -14.360298 1.474642
13.770028 -14.383466 1.474642
13.727976 -14.410969 1.474642
13.68888 -14.442533 1.474642
13.65313 -14.477842 1.474642
13.621084 -14.516544 1.474642
13.593061 -14.558252 1.474642
13.569344 -14.60255 1.474642
13.550166 -14.648993 1.474642
13.535721 -14.69712 1.474642
13.526153 -14.746448 1.474642
13.521557 -14.796484 1.474642
13.521979 -14.84673 1.474642
13.527415 -14.896683 1.474642
13.537812 -14.945843 1.474642
13.553064 -14.993719 1.474642
13.57302 -15.039834 1.474642
13.597479 -15.083726 1.474642
13.626199 -15.124957 1.474642
13.658891 -15.163115 1.474642
13.69523 -15.197818 1.474642
13.734851 -15.228721 1.474642
13.777359 -15.255513 1.474642
13.82233 -15.277927 1.474642
13.869313 -15.295741 1.474642
13.917841 -15.308775 1.474642
13.967427 -15.316898 1.474642
14.017577 -15.320031 1.474642
14.067789 -15.318142 1.474642
14.117561 -15.31125 1.474642
14.166397 -15.299422 1.474642
14.213808 -15.282779 1.474642
14.25932 -15.261485 1.474642
14.30248 -15.235754 1.474642
14.342854 -15.205844 1.474642
14.380041 -15.172051 1.474642
14.413669 -15.134715 1.474642
14.443401 -15.094209 1.474642
14.468941 -15.050936 1.474642
14.490033 -15.00533 1.474642
14.506467 -14.957846 1.474642
14.518078 -14.908958 1.474642
14.524751 -14.859156 1.474642
14.583559 -14.817387 1.4214758
14.580763 -14.761504 1.4214758
14.572401 -14.706181 1.4214758
14.558558 -14.651968 1.4214758
14.539372 -14.599408 1.4214758
14.515036 -14.549026 1.4214758
14.48579 -14.501326 1.4214758
14.451929 -14.456783 1.4214758
14.41379 -14.415844 1.4214758
14.371754 -14.378917 1.4214758
14.326241 -14.346371 1.4214758
14.277707 -14.31853 1.4214758
14.226637 -14.295674 1.4214758
14.173539 -14.278031 1.4214758
14.118945 -14.265778 1.4214758
14.063401 -14.259035 1.4214758
14.007461 -14.257872 1.4214758
13.951684 -14.262299 1.4214758
13.896628 -14.272272 1.4214758
13.842843 -14.287692 1.4214758
13.790866 -14.308404 1.4214758
13.741217 -14.334202 1.4214758
13.69439 -14.364828 1.4214758
13.650855 -14.399976 1.4214758
13.611047 -14.439294 1.4214758
13.575363 -14.482389 1.4214758
13.544159 -14.528832 1.4214758
13.517748 -14.578159 1.4214758
13.496393 -14.629875 1.4214758
13.480309 -14.683466 1.4214758
13.469654 -14.738394 1.4214758
13.464537 -14.794111 1.4214758
13.465007 -14.850061 1.4214758
13.471061 -14.905684 1.4214758
13.482636 -14.960426 1.4214758
13.49962 -15.013738 1.4214758
13.521842 -15.065088 1.4214758
13.549078 -15.113963 1.4214758
13.581059 -15.159876 1.4214758
13.617462 -15.202366 1.4214758
13.657926 -15.241009 1.4214758
13.702045 -15.275419 1.4214758
13.74938 -15.305254 1.4214758
13.799456 -15.330214 1.4214758
13.851774 -15.350049 1.4214758
13.905811 -15.364562 1.4214758
13.961027 -15.373609 1.4214758
14.01687 -15.377097 1.4214758
14.072783 -15.374993 1.4214758
14.128205 -15.367318 1.4214758
14.182585 -15.354148 1.4214758
14.235378 -15.335615 1.4214758
14.286058 -15.311904 1.4214758
14.334117 -15.283252 1.4214758
14.379076 -15.249945 1.4214758
14.420485 -15.212317 1.4214758
14.457931 -15.170742 1.4214758
14.491038 -15.125636 1.4214758
14.519478 -15.077451 1.4214758
14.542964 -15.026667 1.4214758
14.561264 -14.973792 1.4214758
14.574193 -14.919354 1.4214758
14.581623 -14.863898 1.4214758
14.635036 -14.817387 1.3628777
14.631983 -14.756366 1.3628777
14.622852 -14.695954 1.3628777
14.607737 -14.636756 1.3628777
14.586786 -14.579362 1.3628777
14.560211 -14.524347 1.3628777
14.528276 -14.47226 1.3628777
14.491301 -14.423621 1.3628777
14.449654 -14.378917 1.3628777
14.403752 -14.338593 1.3628777
14.354054 -14.303054 1.3628777
14.301058 -14.272654 1.3628777
14.24529 -14.247696 1.3628777
14.187309 -14.228431 1.3628777
14.127694 -14.21505 1.3628777
14.067042 -14.207687 1.3628777
14.005958 -14.206417 1.3628777
13.945052 -14.211251 1.3628777
13.884933 -14.222141 1.3628777
13.826201 -14.238979 1.3628777
13.769444 -14.261597 1.3628777
13.715228 -14.289766 1.3628777
13.664096 -14.323209 1.3628777
13.616557 -14.361588 1.3628777
13.573088 -14.404523 1.3628777
13.534122 -14.451582 1.3628777
13.50005 -14.502296 1.3628777
13.47121 -14.556159 1.3628777
13.44789 -14.612631 1.3628777
13.430326 -14.67115 1.3628777
13.418692 -14.73113 1.3628777
13.413104 -14.791971 1.3628777
13.413617 -14.853066 1.3628777
13.420228 -14.913805 1.3628777
13.432869 -14.97358 1.3628777
13.451414 -15.031796 1.3628777
13.475679 -15.087868 1.3628777
13.505421 -15.141238 1.3628777
13.540341 -15.191372 1.3628777
13.580093 -15.23777 1.3628777
13.624278 -15.279966 1.3628777
13.672455 -15.317542 1.3628777
13.724142 -15.35012 1.3628777
13.778824 -15.377375 1.3628777
13.835954 -15.399035 1.3628777
13.894959 -15.414883 1.3628777
13.955254 -15.424761 1.3628777
14.016232 -15.42857 1.3628777
14.077287 -15.426273 1.3628777
14.137806 -15.417892 1.3628777
14.197187 -15.403511 1.3628777
14.254836 -15.383273 1.3628777
14.310176 -15.357382 1.3628777
14.362655 -15.326095 1.3628777
14.411748 -15.289725 1.3628777
14.456965 -15.248635 1.3628777
14.497854 -15.203238 1.3628777
14.534006 -15.153984 1.3628777
14.565062 -15.101367 1.3628777
14.590708 -15.045914 1.3628777
14.61069 -14.988176 1.3628777
14.624809 -14.928732 1.3628777
14.632922 -14.868176 1.3628777
14.680406 -14.817387 1.2994334
14.677126 -14.751836 1.2994334
14.667317 -14.68694 1.2994334
14.65108 -14.623348 1.2994334
14.628574 -14.561694 1.2994334
14.600027 -14.502596 1.2994334
14.565722 -14.446642 1.2994334
14.526001 -14.394393 1.2994334
14.481263 -14.346371 1.2994334
14.431955 -14.303054 1.2994334
14.378569 -14.264876 1.2994334
14.321637 -14.23222 1.2994334
14.26173 -14.205409 1.2994334
14.199446 -14.184714 1.2994334
14.135406 -14.17034 1.2994334
14.070251 -14.162431 1.2994334
14.004633 -14.161066 1.2994334
13.939206 -14.166259 1.2994334
13.874624 -14.177958 1.2994334
13.811533 -14.196046 1.2994334
13.750564 -14.220342 1.2994334
13.692324 -14.250603 1.2994334
13.637396 -14.286528 1.2994334
13.586329 -14.327756 1.2994334
13.539633 -14.373878 1.2994334
13.497774 -14.424429 1.2994334
13.461172 -14.478908 1.2994334
13.430192 -14.536769 1.2994334
13.405142 -14.597433 1.2994334
13.386274 -14.660295 1.2994334
13.373776 -14.724727 1.2994334
13.367773 -14.790084 1.2994334
13.368325 -14.855715 1.2994334
13.375426 -14.920962 1.2994334
13.389006 -14.985174 1.2994334
13.408928 -15.04771 1.2994334
13.434994 -15.107944 1.2994334
13.466942 -15.165277 1.2994334
13.504456 -15.219132 1.2994334
13.547157 -15.268973 1.2994334
13.594622 -15.314302 1.2994334
13.646376 -15.354667 1.2994334
13.7019 -15.389663 1.2994334
13.76064 -15.418941 1.2994334
13.82201 -15.442208 1.2994334
13.885396 -15.459233 1.2994334
13.950165 -15.469845 1.2994334
14.01567 -15.473937 1.2994334
14.081256 -15.471469 1.2994334
14.146268 -15.462465 1.2994334
14.210057 -15.447017 1.2994334
14.271984 -15.425278 1.2994334
14.331432 -15.397464 1.2994334
14.387807 -15.363854 1.2994334
14.440544 -15.324785 1.2994334
14.489118 -15.280646 1.2994334
14.533041 -15.231878 1.2994334
14.571877 -15.178968 1.2994334
14.605237 -15.122446 1.2994334
14.632788 -15.062876 1.2994334
14.654253 -15.000853 1.2994334
14.669419 -14.936996 1.2994334
14.678135 -14.871945 1.2994334
14.719215 -14.817387 1.2317764
14.715741 -14.747961 1.2317764
14.705354 -14.67923 1.2317764
14.688156 -14.611879 1.2317764
14.66432 -14.546581 1.2317764
14.634085 -14.48399 1.2317764
14.597752 -14.424728 1.2317764
14.555684 -14.369391 1.2317764
14.508302 -14.31853 1.2317764
14.456079 -14.272654 1.2317764
14.399537 -14.23222 1.2317764
14.339241 -14.197633 1.2317764
14.275792 -14.169237 1.2317764
14.209826 -14.147319 1.2317764
14.142002 -14.132095 1.2317764
14.072997 -14.123719 1.2317764
14.0035 -14.122273 1.2317764
13.934206 -14.127773 1.2317764
13.865807 -14.140163 1.2317764
13.798986 -14.159321 1.2317764
13.734413 -14.185053 1.2317764
13.67273 -14.217102 1.2317764
13.614556 -14.255151 1.2317764
13.560471 -14.298816 1.2317764
13.511015 -14.347663 1.2317764
13.466682 -14.401203 1.2317764
13.427917 -14.458901 1.2317764
13.395105 -14.520183 1.2317764
13.368575 -14.584433 1.2317764
13.348592 -14.65101 1.2317764
13.335356 -14.71925 1.2317764
13.328998 -14.78847 1.2317764
13.329582 -14.85798 1.2317764
13.337103 -14.927084 1.2317764
13.351484 -14.995091 1.2317764
13.372584 -15.061324 1.2317764
13.40019 -15.125119 1.2317764
13.434029 -15.185839 1.2317764
13.473759 -15.242878 1.2317764
13.518985 -15.295665 1.2317764
13.569255 -15.343674 1.2317764
13.624066 -15.386424 1.2317764
13.682873 -15.423489 1.2317764
13.745085 -15.454496 1.2317764
13.810082 -15.479139 1.2317764
13.877214 -15.49717 1.2317764
13.945812 -15.508409 1.2317764
14.015189 -15.512743 1.2317764
14.084652 -15.510129 1.2317764
14.153506 -15.500594 1.2317764
14.221066 -15.484232 1.2317764
14.286654 -15.461207 1.2317764
14.349615 -15.43175 1.2317764
14.409322 -15.396154 1.2317764
14.465176 -15.354775 1.2317764
14.51662 -15.308027 1.2317764
14.56314 -15.256377 1.2317764
14.604272 -15.20034 1.2317764
14.639604 -15.140477 1.2317764
14.668782 -15.077386 1.2317764
14.691517 -15.011697 1.2317764
14.70758 -14.944067 1.2317764
14.71681 -14.875171 1.2317764
14.751077 -14.817387 1.160583
14.747443 -14.744781 1.160583
14.736579 -14.6729 1.160583
14.718594 -14.602464 1.160583
14.693666 -14.534174 1.160583
14.662045 -14.468715 1.160583
14.624048 -14.406738 1.160583
14.580053 -14.348866 1.160583
14.5305 -14.295674 1.160583
14.475884 -14.247696 1.160583
14.416752 -14.205409 1.160583
14.353693 -14.169237 1.160583
14.287337 -14.139542 1.160583
14.218349 -14.116619 1.160583
14.147418 -14.100698 1.160583
14.075251 -14.091938 1.160583
14.002569 -14.090426 1.160583
13.9301 -14.096178 1.160583
13.858568 -14.109136 1.160583
13.788687 -14.12917 1.160583
13.721154 -14.156081 1.160583
13.656646 -14.1896 1.160583
13.595806 -14.229391 1.160583
13.539243 -14.275057 1.160583
13.487521 -14.326142 1.160583
13.441157 -14.382135 1.160583
13.400616 -14.442477 1.160583
13.366301 -14.506565 1.160583
13.338555 -14.573759 1.160583
13.317657 -14.643387 1.160583
13.303813 -14.714754 1.160583
13.297164 -14.787146 1.160583
13.297775 -14.859839 1.160583
13.30564 -14.93211 1.160583
13.320682 -15.003233 1.160583
13.342748 -15.0725 1.160583
13.371619 -15.139218 1.160583
13.407007 -15.20272 1.160583
13.448557 -15.262372 1.160583
13.495855 -15.317578 1.160583
13.548429 -15.367786 1.160583
13.605752 -15.412495 1.160583
13.667253 -15.451258 1.160583
13.732315 -15.483686 1.160583
13.80029 -15.509459 1.160583
13.870499 -15.528316 1.160583
13.942239 -15.540069 1.160583
14.014794 -15.544601 1.160583
14.08744 -15.541868 1.160583
14.159449 -15.531896 1.160583
14.230103 -15.514785 1.160583
14.298697 -15.490705 1.160583
14.364542 -15.459898 1.160583
14.426984 -15.422671 1.160583
14.485397 -15.379396 1.160583
14.539199 -15.330507 1.160583
14.587851 -15.27649 1.160583
14.630867 -15.217886 1.160583
14.667817 -15.15528 1.160583
14.698333 -15.089298 1.160583
14.722109 -15.020599 1.160583
14.738908 -14.94987 1.160583
14.748561 -14.877818 1.160583
14.775671 -14.817387 1.0865645
14.771914 -14.742326 1.0865645
14.760683 -14.668015 1.0865645
14.74209 -14.595196 1.0865645
14.716319 -14.524596 1.0865645
14.683629 -14.456923 1.0865645
14.644346 -14.392852 1.0865645
14.598864 -14.333022 1.0865645
14.547635 -14.278031 1.0865645
14.491173 -14.228431 1.0865645
14.43004 -14.184714 1.0865645
14.364849 -14.147319 1.0865645
14.296249 -14.116619 1.0865645
14.224929 -14.092921 1.0865645
14.151598 -14.076462 1.0865645
14.07699 -14.067405 1.0865645
14.001851 -14.065842 1.0865645
13.926931 -14.071789 1.0865645
13.85298 -14.085185 1.0865645
13.780735 -14.105897 1.0865645
13.710919 -14.133718 1.0865645
13.644229 -14.168369 1.0865645
13.581332 -14.209506 1.0865645
13.522856 -14.256717 1.0865645
13.469385 -14.309529 1.0865645
13.421453 -14.367416 1.0865645
13.379541 -14.429799 1.0865645
13.344066 -14.496055 1.0865645
13.315382 -14.56552 1.0865645
13.293777 -14.637503 1.0865645
13.279465 -14.711283 1.0865645
13.272591 -14.786123 1.0865645
13.273223 -14.861276 1.0865645
13.281354 -14.935989 1.0865645
13.296904 -15.009519 1.0865645
13.319716 -15.081127 1.0865645
13.349564 -15.150102 1.0865645
13.386148 -15.215751 1.0865645
13.429104 -15.27742 1.0865645
13.478002 -15.334493 1.0865645
13.532352 -15.386399 1.0865645
13.591615 -15.43262 1.0865645
13.655194 -15.472693 1.0865645
13.722458 -15.506219 1.0865645
13.792731 -15.532863 1.0865645
13.865314 -15.552357 1.0865645
13.939481 -15.564508 1.0865645
14.014489 -15.569194 1.0865645
14.089591 -15.566368 1.0865645
14.164036 -15.556059 1.0865645
14.23708 -15.538369 1.0865645
14.307992 -15.513475 1.0865645
14.376065 -15.481627 1.0865645
14.440619 -15.443141 1.0865645
14.501007 -15.398402 1.0865645
14.556628 -15.347859 1.0865645
14.606925 -15.292016 1.0865645
14.651396 -15.23143 1.0865645
14.689596 -15.166707 1.0865645
14.721144 -15.098494 1.0865645
14.745724 -15.027472 1.0865645
14.76309 -14.95435 1.0865645
14.77307 -14.879861 1.0865645
14.792752 -14.817387 1.0104605
14.788911 -14.74062 1.0104605
14.777425 -14.66462 1.0104605
14.758409 -14.590147 1.0104605
14.732053 -14.517944 1.0104605
14.69862 -14.448733 1.0104605
14.658445 -14.383206 1.0104605
14.611929 -14.322018 1.0104605
14.559536 -14.265778 1.0104605
14.501791 -14.21505 1.0104605
14.439269 -14.17034 1.0104605
14.372597 -14.132095 1.0104605
14.30244 -14.100698 1.0104605
14.229498 -14.076462 1.0104605
14.154501 -14.059628 1.0104605
14.078198 -14.050365 1.0104605
14.001352 -14.048767 1.0104605
13.924731 -14.054849 1.0104605
13.849099 -14.068549 1.0104605
13.775213 -14.089732 1.0104605
13.703811 -14.118185 1.0104605
13.635606 -14.153625 1.0104605
13.57128 -14.195696 1.0104605
13.511475 -14.243979 1.0104605
13.456789 -14.297991 1.0104605
13.407768 -14.357193 1.0104605
13.364903 -14.420993 1.0104605
13.328622 -14.488754 1.0104605
13.299287 -14.559798 1.0104605
13.27719 -14.633416 1.0104605
13.262554 -14.708872 1.0104605
13.255524 -14.785413 1.0104605
13.256169 -14.862272 1.0104605
13.264486 -14.938684 1.0104605
13.280389 -15.013884 1.0104605
13.30372 -15.087119 1.0104605
13.334246 -15.15766 1.0104605
13.371661 -15.224802 1.0104605
13.415592 -15.287872 1.0104605
13.465601 -15.346242 1.0104605
13.521187 -15.399327 1.0104605
13.581796 -15.446598 1.0104605
13.64682 -15.487581 1.0104605
13.715611 -15.52187 1.0104605
13.787481 -15.549118 1.0104605
13.861713 -15.569056 1.0104605
13.937565 -15.581482 1.0104605
14.014277 -15.586275 1.0104605
14.091086 -15.583385 1.0104605
14.167222 -15.572841 1.0104605
14.241925 -15.554749 1.0104605
14.314448 -15.52929 1.0104605
14.384068 -15.496717 1.0104605
14.450089 -15.457357 1.0104605
14.511849 -15.411603 1.0104605
14.568733 -15.359911 1.0104605
14.620173 -15.302799 1.0104605
14.665654 -15.240837 1.0104605
14.704722 -15.174644 1.0104605
14.736986 -15.10488 1.0104605
14.762125 -15.032245 1.0104605
14.779886 -14.957462 1.0104605
14.790093 -14.881281 1.0104605
14.802152 -14.817387 0.93303126
14.798264 -14.739681 0.93303126
14.786636 -14.662753 0.93303126
14.767388 -14.58737 0.93303126
14.740709 -14.514284 0.93303126
14.706868 -14.444227 0.93303126
14.666203 -14.377899 0.93303126
14.619118 -14.315963 0.93303126
14.566084 -14.259035 0.93303126
14.507633 -14.207687 0.93303126
14.444347 -14.162431 0.93303126
14.376861 -14.123719 0.93303126
14.305845 -14.091938 0.93303126
14.232012 -14.067405 0.93303126
14.156098 -14.050365 0.93303126
14.078863 -14.040991 0.93303126
14.001078 -14.039372 0.93303126
13.92352 -14.045528 0.93303126
13.846964 -14.059397 0.93303126
13.772174 -14.080838 0.93303126
13.6999 -14.109639 0.93303126
13.63086 -14.145512 0.93303126
13.565748 -14.188097 0.93303126
13.505213 -14.23697 0.93303126
13.449859 -14.291642 0.93303126
13.400239 -14.351568 0.93303126
13.35685 -14.416148 0.93303126
13.320125 -14.484737 0.93303126
13.290431 -14.556649 0.93303126
13.268064 -14.631167 0.93303126
13.253249 -14.707546 0.93303126
13.246133 -14.785022 0.93303126
13.246787 -14.862822 0.93303126
13.255204 -14.940166 0.93303126
13.271302 -15.016285 0.93303126
13.294918 -15.090417 0.93303126
13.325817 -15.161819 0.93303126
13.363689 -15.229781 0.93303126
13.408158 -15.293623 0.93303126
13.458778 -15.352706 0.93303126
13.515044 -15.40644 0.93303126
13.576393 -15.454288 0.93303126
13.642212 -15.495773 0.93303126
13.711844 -15.53048 0.93303126
13.784593 -15.558062 0.93303126
13.859732 -15.578243 0.93303126
13.936511 -15.590822 0.93303126
14.014161 -15.595673 0.93303126
14.091908 -15.592748 0.93303126
14.168975 -15.582075 0.93303126
14.244591 -15.563762 0.93303126
14.318001 -15.537992 0.93303126
14.388472 -15.505021 0.93303126
14.455299 -15.465179 0.93303126
14.517815 -15.418866 0.93303126
14.575395 -15.366543 0.93303126
14.627462 -15.308732 0.93303126
14.6735 -15.246013 0.93303126
14.713045 -15.17901 0.93303126
14.745704 -15.108395 0.93303126
14.77115 -15.034871 0.93303126
14.789128 -14.959175 0.93303126
14.799459 -14.882062 0.93303126
14.803774 -14.817387 0.85505056
14.799877 -14.73952 0.85505056
14.788226 -14.662431 0.85505056
14.768937 -14.58689 0.85505056
14.742204 -14.513653 0.85505056
14.708292 -14.44345 0.85505056
14.667541 -14.376984 0.85505056
14.620358 -14.314918 0.85505056
14.567214 -14.257872 0.85505056
14.508641 -14.206417 0.85505056
14.445224 -14.161066 0.85505056
14.377596 -14.122273 0.85505056
14.306433 -14.090426 0.85505056
14.232446 -14.065842 0.85505056
14.156374 -14.048767 0.85505056
14.078979 -14.039372 0.85505056
14.001031 -14.037751 0.85505056
13.923311 -14.04392 0.85505056
13.846595 -14.057817 0.85505056
13.77165 -14.079303 0.85505056
13.699224 -14.108164 0.85505056
13.630042 -14.144111 0.85505056
13.564794 -14.186786 0.85505056
13.504131 -14.235761 0.85505056
13.448662 -14.290547 0.85505056
13.398939 -14.350597 0.85505056
13.35546 -14.415312 0.85505056
13.318659 -14.484044 0.85505056
13.288902 -14.556107 0.85505056
13.26649 -14.630779 0.85505056
13.251643 -14.707317 0.85505056
13.244513 -14.784954 0.85505056
13.245168 -14.862916 0.85505056
13.253603 -14.940422 0.85505056
13.269733 -15.0167 0.85505056
13.293399 -15.090985 0.85505056
13.324363 -15.162538 0.85505056
13.362314 -15.230641 0.85505056
13.406876 -15.294615 0.85505056
13.457601 -15.353821 0.85505056
13.513984 -15.407667 0.85505056
13.57546 -15.455616 0.85505056
13.641417 -15.497187 0.85505056
13.711194 -15.531966 0.85505056
13.784095 -15.559606 0.85505056
13.85939 -15.579828 0.85505056
13.936329 -15.592434 0.85505056
14.014141 -15.597295 0.85505056
14.092051 -15.594363 0.85505056
14.169277 -15.583669 0.85505056
14.245051 -15.565317 0.85505056
14.318614 -15.539494 0.85505056
14.389232 -15.506454 0.85505056
14.456198 -15.46653 0.85505056
14.518844 -15.420119 0.85505056
14.576544 -15.367687 0.85505056
14.62872 -15.309756 0.85505056
14.674853 -15.246905 0.85505056
14.714481 -15.179764 0.85505056
14.747208 -15.109001 0.85505056
14.772707 -15.035324 0.85505056
14.790723 -14.95947 0.85505056
14.801076 -14.882196 0.85505056
14.797603 -14.817387 0.7772975
14.793736 -14.740136 0.7772975
14.782178 -14.663657 0.7772975
14.763041 -14.588714 0.7772975
14.73652 -14.516056 0.7772975
14.702876 -14.446409 0.7772975
14.662448 -14.380468 0.7772975
14.615638 -14.318893 0.7772975
14.562915 -14.262299 0.7772975
14.504806 -14.211251 0.7772975
14.44189 -14.166259 0.7772975
14.374797 -14.127773 0.7772975
14.304196 -14.096178 0.7772975
14.230795 -14.071789 0.7772975
14.155326 -14.054849 0.7772975
14.078542 -14.045528 0.7772975
14.001211 -14.04392 0.7772975
13.924106 -14.050039 0.7772975
13.847997 -14.063827 0.7772975
13.773645 -14.085143 0.7772975
13.701793 -14.113775 0.7772975
13.633158 -14.149438 0.7772975
13.568425 -14.191775 0.7772975
13.508244 -14.240362 0.7772975
13.453213 -14.294716 0.7772975
13.403884 -14.354291 0.7772975
13.360748 -14.418493 0.7772975
13.324238 -14.486681 0.7772975
13.294718 -14.558173 0.7772975
13.272482 -14.632256 0.7772975
13.257752 -14.708188 0.7772975
13.250678 -14.785211 0.7772975
13.251328 -14.862556 0.7772975
13.259697 -14.939449 0.7772975
13.275701 -15.015122 0.7772975
13.299178 -15.08882 0.7772975
13.329897 -15.159806 0.7772975
13.367548 -15.227371 0.7772975
13.411757 -15.290839 0.7772975
13.462081 -15.349577 0.7772975
13.518018 -15.402997 0.7772975
13.579008 -15.450566 0.7772975
13.644443 -15.491808 0.7772975
13.713667 -15.526312 0.7772975
13.785991 -15.553733 0.7772975
13.860691 -15.573795 0.7772975
13.937021 -15.586301 0.7772975
14.014217 -15.591124 0.7772975
14.091511 -15.588216 0.7772975
14.168126 -15.577605 0.7772975
14.2433 -15.5594 0.7772975
14.316281 -15.533779 0.7772975
14.38634 -15.501001 0.7772975
14.452777 -15.461393 0.7772975
14.514927 -15.415351 0.7772975
14.57217 -15.363333 0.7772975
14.623935 -15.305861 0.7772975
14.669703 -15.243507 0.7772975
14.709017 -15.176896 0.7772975
14.741485 -15.106693 0.7772975
14.766782 -15.0336 0.7772975
14.784655 -14.958346 0.7772975
14.794927 -14.881683 0.7772975
14.783699 -14.817387 0.70054901
14.779903 -14.741524 0.70054901
14.768552 -14.666419 0.70054901
14.74976 -14.592823 0.70054901
14.723714 -14.52147 0.70054901
14.690675 -14.453074 0.70054901
14.650973 -14.388318 0.70054901
14.605004 -14.327849 0.70054901
14.553228 -14.272272 0.70054901
14.496163 -14.222141 0.70054901
14.434378 -14.177958 0.70054901
14.36849 -14.140163 0.70054901
14.299159 -14.109136 0.70054901
14.227077 -14.085185 0.70054901
14.152963 -14.068549 0.70054901
14.077559 -14.059397 0.70054901
14.001616 -14.057817 0.70054901
13.925898 -14.063827 0.70054901
13.851156 -14.077366 0.70054901
13.77814 -14.098299 0.70054901
13.707578 -14.126417 0.70054901
13.640176 -14.161439 0.70054901
13.576607 -14.203015 0.70054901
13.517507 -14.25073 0.70054901
13.463465 -14.304106 0.70054901
13.415022 -14.362611 0.70054901
13.372662 -14.42566 0.70054901
13.336807 -14.492623 0.70054901
13.307817 -14.562831 0.70054901
13.28598 -14.635582 0.70054901
13.271517 -14.71015 0.70054901
13.264569 -14.785789 0.70054901
13.265207 -14.861744 0.70054901
13.273426 -14.937256 0.70054901
13.289142 -15.01157 0.70054901
13.312198 -15.083943 0.70054901
13.342364 -15.153654 0.70054901
13.379339 -15.220005 0.70054901
13.422753 -15.282332 0.70054901
13.472174 -15.340015 0.70054901
13.527105 -15.392475 0.70054901
13.587 -15.43919 0.70054901
13.651258 -15.479692 0.70054901
13.719239 -15.513575 0.70054901
13.790264 -15.540503 0.70054901
13.863622 -15.560205 0.70054901
13.938581 -15.572486 0.70054901
14.01439 -15.577222 0.70054901
14.090294 -15.574366 0.70054901
14.165533 -15.563947 0.70054901
14.239357 -15.546068 0.70054901
14.311027 -15.520908 0.70054901
14.379827 -15.488719 0.70054901
14.445069 -15.449822 0.70054901
14.506104 -15.404607 0.70054901
14.562318 -15.353524 0.70054901
14.613152 -15.297084 0.70054901
14.658097 -15.235851 0.70054901
14.696705 -15.170437 0.70054901
14.72859 -15.101496 0.70054901
14.753432 -15.029716 0.70054901
14.770985 -14.955813 0.70054901
14.781072 -14.880528 0.70054901
14.762204 -14.817387 0.62557185
14.758515 -14.74367 0.62557185
14.747485 -14.67069 0.62557185
14.729224 -14.599174 0.62557185
14.703916 -14.52984 0.62557185
14.671811 -14.46338 0.62557185
14.633232 -14.400455 0.62557185
14.588564 -14.341698 0.62557185
14.538253 -14.287692 0.62557185
14.482801 -14.238979 0.62557185
14.422764 -14.196046 0.62557185
14.35874 -14.159321 0.62557185
14.291369 -14.12917 0.62557185
14.221326 -14.105897 0.62557185
14.149309 -14.089732 0.62557185
14.076037 -14.080838 0.62557185
14.002245 -14.079303 0.62557185
13.928667 -14.085143 0.62557185
13.85604 -14.098299 0.62557185
13.785089 -14.11864 0.62557185
13.716523 -14.145963 0.62557185
13.651028 -14.179995 0.62557185
13.589257 -14.220394 0.62557185
13.531829 -14.266759 0.62557185
13.479316 -14.318625 0.62557185
13.432242 -14.375476 0.62557185
13.391081 -14.436741 0.62557185
13.35624 -14.50181 0.62557185
13.328071 -14.570031 0.62557185
13.306851 -14.640725 0.62557185
13.292797 -14.713183 0.62557185
13.286046 -14.786683 0.62557185
13.286666 -14.860489 0.62557185
13.294652 -14.933865 0.62557185
13.309923 -15.006077 0.62557185
13.332327 -15.076404 0.62557185
13.36164 -15.144142 0.62557185
13.39757 -15.208616 0.62557185
13.439755 -15.26918 0.62557185
13.487778 -15.325232 0.62557185
13.541155 -15.376207 0.62557185
13.599356 -15.4216 0.62557185
13.661797 -15.460957 0.62557185
13.727855 -15.493881 0.62557185
13.79687 -15.520048 0.62557185
13.868153 -15.539193 0.62557185
13.94099 -15.551126 0.62557185
14.014656 -15.555728 0.62557185
14.088413 -15.552953 0.62557185
14.161525 -15.542829 0.62557185
14.233259 -15.525455 0.62557185
14.302902 -15.501007 0.62557185
14.369756 -15.469729 0.62557185
14.433153 -15.431932 0.62557185
14.49246 -15.387996 0.62557185
14.547085 -15.338358 0.62557185
14.596481 -15.283515 0.62557185
14.640155 -15.224014 0.62557185
14.67767 -15.16045 0.62557185
14.708653 -15.093459 0.62557185
14.732793 -15.023709 0.62557185
14.749849 -14.951898 0.62557185
14.75965 -14.878742 0.62557185
14.733331 -14.817387 0.55311537
14.729786 -14.746552 0.55311537
14.719188 -14.676426 0.55311537
14.701641 -14.607708 0.55311537
14.677321 -14.541084 0.55311537
14.646473 -14.477222 0.55311537
14.609402 -14.416759 0.55311537
14.566481 -14.360298 0.55311537
14.518137 -14.308404 0.55311537
14.464853 -14.261597 0.55311537
14.407164 -14.220342 0.55311537
14.345643 -14.185053 0.55311537
14.280908 -14.156081 0.55311537
14.213603 -14.133718 0.55311537
14.144402 -14.118185 0.55311537
14.073996 -14.109638 0.55311537
14.003088 -14.108164 0.55311537
13.932387 -14.113775 0.55311537
13.862599 -14.126417 0.55311537
13.794423 -14.145963 0.55311537
13.728539 -14.172217 0.55311537
13.665605 -14.204918 0.55311537
13.606249 -14.243738 0.55311537
13.551066 -14.28829 0.55311537
13.500607 -14.338128 0.55311537
13.455374 -14.392756 0.55311537
13.415821 -14.451625 0.55311537
13.382343 -14.51415 0.55311537
13.355275 -14.579703 0.55311537
13.334887 -14.647633 0.55311537
13.321381 -14.717257 0.55311537
13.314894 -14.787884 0.55311537
13.31549 -14.858804 0.55311537
13.323164 -14.929311 0.55311537
13.337837 -14.998699 0.55311537
13.359365 -15.066276 0.55311537
13.387532 -15.131365 0.55311537
13.422056 -15.193318 0.55311537
13.462593 -15.251514 0.55311537
13.508738 -15.305373 0.55311537
13.560028 -15.354357 0.55311537
13.615952 -15.397974 0.55311537
13.675952 -15.435791 0.55311537
13.739428 -15.467429 0.55311537
13.805744 -15.492572 0.55311537
13.874239 -15.510969 0.55311537
13.944229 -15.522435 0.55311537
14.015014 -15.526857 0.55311537
14.085887 -15.524191 0.55311537
14.156139 -15.514462 0.55311537
14.225069 -15.497768 0.55311537
14.291988 -15.474277 0.55311537
14.356229 -15.444221 0.55311537
14.417147 -15.407903 0.55311537
14.474134 -15.365684 0.55311537
14.526624 -15.317986 0.55311537
14.574088 -15.265287 0.55311537
14.616055 -15.208114 0.55311537
14.652103 -15.147036 0.55311537
14.681874 -15.082664 0.55311537
14.70507 -15.015641 0.55311537
14.721459 -14.946638 0.55311537
14.730877 -14.876343 0.55311537
14.697369 -14.817387 0.48390335
14.694003 -14.750142 0.48390335
14.683942 -14.68357 0.48390335
14.667285 -14.618335 0.48390335
14.644198 -14.555089 0.48390335
14.614913 -14.494463 0.48390335
14.579721 -14.437064 0.48390335
14.538975 -14.383466 0.48390335
14.493081 -14.334202 0.48390335
14.442499 -14.289766 0.48390335
14.387733 -14.250603 0.48390335
14.329331 -14.217102 0.48390335
14.267877 -14.1896 0.48390335
14.203982 -14.168369 0.48390335
14.138289 -14.153625 0.48390335
14.071451 -14.145512 0.48390335
14.004138 -14.144111 0.48390335
13.93702 -14.149438 0.48390335
13.87077 -14.161439 0.48390335
13.806049 -14.179995 0.48390335
13.743505 -14.204918 0.48390335
13.68376 -14.235961 0.48390335
13.627413 -14.272814 0.48390335
13.575027 -14.315107 0.48390335
13.527124 -14.36242 0.48390335
13.484185 -14.414278 0.48390335
13.446637 -14.470164 0.48390335
13.414856 -14.529519 0.48390335
13.38916 -14.591751 0.48390335
13.369804 -14.656237 0.48390335
13.356983 -14.722333 0.48390335
13.350825 -14.789379 0.48390335
13.351392 -14.856705 0.48390335
13.358676 -14.923637 0.48390335
13.372606 -14.989509 0.48390335
13.393043 -15.05366 0.48390335
13.419783 -15.115451 0.48390335
13.452557 -15.174264 0.48390335
13.491038 -15.22951 0.48390335
13.534843 -15.28064 0.48390335
13.583535 -15.32714 0.48390335
13.636624 -15.368547 0.48390335
13.693583 -15.404448 0.48390335
13.753841 -15.434482 0.48390335
13.816796 -15.45835 0.48390335
13.88182 -15.475814 0.48390335
13.948262 -15.4867 0.48390335
14.01546 -15.490898 0.48390335
14.08274 -15.488366 0.48390335
14.149432 -15.479131 0.48390335
14.214869 -15.463283 0.48390335
14.278396 -15.440982 0.48390335
14.339379 -15.41245 0.48390335
14.39721 -15.377972 0.48390335
14.451309 -15.337893 0.48390335
14.501138 -15.292614 0.48390335
14.546197 -15.242586 0.48390335
14.586036 -15.18831 0.48390335
14.620257 -15.130327 0.48390335
14.64852 -15.069218 0.48390335
14.67054 -15.005592 0.48390335
14.686098 -14.940086 0.48390335
14.695039 -14.873355 0.48390335
14.654675 -14.817387 0.41862735
14.651525 -14.754405 0.41862735
14.6421 -14.692052 0.41862735
14.626499 -14.630952 0.41862735
14.604876 -14.571714 0.41862735
14.577446 -14.514932 0.41862735
14.544485 -14.46117 0.41862735
14.506322 -14.410969 0.41862735
14.463337 -14.364828 0.41862735
14.41596 -14.323209 0.41862735
14.364666 -14.286528 0.41862735
14.309966 -14.255151 0.41862735
14.252406 -14.229391 0.41862735
14.192562 -14.209506 0.41862735
14.131033 -14.195696 0.41862735
14.068432 -14.188097 0.41862735
14.005384 -14.186786 0.41862735
13.942521 -14.191774 0.41862735
13.88047 -14.203015 0.41862735
13.819852 -14.220394 0.41862735
13.761271 -14.243738 0.41862735
13.705313 -14.272814 0.41862735
13.652537 -14.30733 0.41862735
13.603472 -14.346943 0.41862735
13.558606 -14.391257 0.41862735
13.518388 -14.439828 0.41862735
13.48322 -14.492172 0.41862735
13.453453 -14.547765 0.41862735
13.429386 -14.606052 0.41862735
13.411257 -14.666451 0.41862735
13.399249 -14.728357 0.41862735
13.393481 -14.791154 0.41862735
13.394011 -14.854213 0.41862735
13.400834 -14.916903 0.41862735
13.413881 -14.9786 0.41862735
13.433022 -15.038685 0.41862735
13.458067 -15.096559 0.41862735
13.488764 -15.151644 0.41862735
13.524807 -15.203389 0.41862735
13.565836 -15.251277 0.41862735
13.611441 -15.29483 0.41862735
13.661165 -15.333612 0.41862735
13.714514 -15.367237 0.41862735
13.770952 -15.395368 0.41862735
13.829917 -15.417724 0.41862735
13.89082 -15.434081 0.41862735
13.953051 -15.444277 0.41862735
14.015988 -15.448209 0.41862735
14.079004 -15.445837 0.41862735
14.141469 -15.437187 0.41862735
14.202758 -15.422344 0.41862735
14.262259 -15.401456 0.41862735
14.319377 -15.374733 0.41862735
14.373543 -15.342441 0.41862735
14.424213 -15.304902 0.41862735
14.470883 -15.262492 0.41862735
14.513086 -15.215635 0.41862735
14.5504 -15.1648 0.41862735
14.582453 -15.110492 0.41862735
14.608923 -15.053256 0.41862735
14.629548 -14.993664 0.41862735
14.64412 -14.93231 0.41862735
14.652494 -14.869807 0.41862735
14.60568 -14.817387 0.3579396
14.602773 -14.759296 0.3579396
14.594081 -14.701786 0.3579396
14.579691 -14.645431 0.3579396
14.559748 -14.590795 0.3579396
14.534449 -14.538422 0.3579396
14.504047 -14.488835 0.3579396
14.468847 -14.442533 0.3579396
14.429201 -14.399976 0.3579396
14.385505 -14.361588 0.3579396
14.338194 -14.327756 0.3579396
14.287742 -14.298816 0.3579396
14.234653 -14.275057 0.3579396
14.179456 -14.256717 0.3579396
14.122705 -14.243979 0.3579396
14.064965 -14.23697 0.3579396
14.006815 -14.235761 0.3579396
13.948834 -14.240362 0.3579396
13.891603 -14.25073 0.3579396
13.835691 -14.266759 0.3579396
13.78166 -14.28829 0.3579396
13.730048 -14.315107 0.3579396
13.681372 -14.346944 0.3579396
13.636117 -14.38348 0.3579396
13.594735 -14.424352 0.3579396
13.557641 -14.469151 0.3579396
13.525205 -14.517429 0.3579396
13.497749 -14.568705 0.3579396
13.475551 -14.622465 0.3579396
13.45883 -14.678173 0.3579396
13.447755 -14.735272 0.3579396
13.442434 -14.793192 0.3579396
13.442924 -14.851353 0.3579396
13.449217 -14.909174 0.3579396
13.46125 -14.966079 0.3579396
13.478906 -15.021498 0.3579396
13.502005 -15.074877 0.3579396
13.530317 -15.125684 0.3579396
13.563561 -15.17341 0.3579396
13.601403 -15.217579 0.3579396
13.643467 -15.25775 0.3579396
13.68933 -15.293521 0.3579396
13.738535 -15.324533 0.3579396
13.79059 -15.350479 0.3579396
