# .PCD v0.7 - Point Cloud Data file format
VERSION 0.7
FIELDS x y z
SIZE 4 4 4
TYPE F F F
COUNT 1 1 1
WIDTH 1522
HEIGHT 1
VIEWPOINT 0 0 0 1 0 0 0
POINTS 1522
DATA ascii
26.655064 -5.4805555 0.88380384
26.647961 -5.4977555 0.88380384
26.642611 -5.5155783 0.88380384
26.639069 -5.5338459 0.88380384
26.637365 -5.5523763 0.88380384
26.637522 -5.5709839 0.88380384
26.639536 -5.5894833 0.88380384
26.643385 -5.6076889 0.88380384
26.649035 -5.6254191 0.88380384
26.656424 -5.6424971 0.88380384
26.665483 -5.658752 0.88380384
26.676119 -5.6740212 0.88380384
26.688225 -5.6881523 0.88380384
26.701683 -5.7010045 0.88380384
26.716356 -5.7124486 0.88380384
26.732098 -5.7223706 0.88380384
26.748753 -5.7306719 0.88380384
26.766153 -5.7372684 0.88380384
26.784124 -5.7420955 0.88380384
26.802486 -5.7451038 0.88380384
26.82106 -5.746264 0.88380384
26.839655 -5.7455645 0.88380384
26.858088 -5.743012 0.88380384
26.876173 -5.7386317 0.88380384
26.89373 -5.7324681 0.88380384
26.910585 -5.7245827 0.88380384
26.926569 -5.7150536 0.88380384
26.941521 -5.7039762 0.88380384
26.955292 -5.691462 0.88380384
26.967747 -5.6776352 0.88380384
26.978758 -5.6626339 0.88380384
26.988214 -5.6466088 0.88380384
26.996027 -5.6297193 0.88380384
27.002113 -5.612134 0.88380384
27.006413 -5.5940294 0.88380384
27.008884 -5.5755858 0.88380384
26.956324 -5.5601172 0.86783463
26.955658 -5.5468435 0.86783463
26.953672 -5.5337029 0.86783463
26.950384 -5.5208259 0.86783463
26.945827 -5.5083413 0.86783463
26.940046 -5.4963741 0.86783463
26.9331 -5.485044 0.86783463
26.925056 -5.4744639 0.86783463
26.915998 -5.4647398 0.86783463
26.906013 -5.4559684 0.86783463
26.895203 -5.4482379 0.86783463
26.883675 -5.4416251 0.86783463
26.871544 -5.4361963 0.86783463
26.858932 -5.4320054 0.86783463
26.845964 -5.4290948 0.86783463
26.832771 -5.4274936 0.86783463
26.819485 -5.427217 0.86783463
26.806236 -5.4282684 0.86783463
26.793158 -5.4306374 0.86783463
26.780382 -5.4342999 0.86783463
26.768036 -5.43922 0.86783463
26.756243 -5.4453478 0.86783463
26.745121 -5.4526219 0.86783463
26.734779 -5.4609704 0.86783463
26.725325 -5.4703097 0.86783463
26.716848 -5.480546 0.86783463
26.709436 -5.4915776 0.86783463
26.703163 -5.503294 0.86783463
26.698092 -5.5155783 0.86783463
26.694271 -5.5283074 0.86783463
26.69174 -5.5413542 0.86783463
26.690525 -5.5545888 0.86783463
26.690636 -5.5678782 0.86783463
26.692074 -5.5810905 0.86783463
26.694824 -5.5940928 0.86783463
26.698858 -5.6067562 0.86783463
26.704136 -5.6189532 0.86783463
26.710606 -5.6305623 0.86783463
26.718201 -5.641468 0.86783463
26.726849 -5.6515603 0.86783463
26.73646 -5.6607394 0.86783463
26.746939 -5.6689129 0.86783463
26.758183 -5.6759992 0.86783463
26.770077 -5.6819277 0.86783463
26.782503 -5.6866393 0.86783463
26.79534 -5.6900864 0.86783463
26.808455 -5.6922355 0.86783463
26.821718 -5.6930637 0.86783463
26.834999 -5.692564 0.86783463
26.848164 -5.6907411 0.86783463
26.86108 -5.687613 0.86783463
26.873621 -5.6832108 0.86783463
26.885658 -5.6775789 0.86783463
26.897074 -5.670773 0.86783463
26.907753 -5.6628618 0.86783463
26.917589 -5.653924 0.86783463
26.926483 -5.6440487 0.86783463
26.934347 -5.6333351 0.86783463
26.941101 -5.6218896 0.86783463
26.94668 -5.609827 0.86783463
26.951027 -5.5972681 0.86783463
26.954098 -5.5843372 0.86783463
26.955864 -5.5711651 0.86783463
26.901791 -5.5601172 0.85725677
26.901398 -5.5522881 0.85725677
26.900227 -5.5445366 0.85725677
26.898287 -5.5369415 0.85725677
26.895599 -5.5295773 0.85725677
26.892189 -5.5225186 0.85725677
26.888092 -5.5158358 0.85725677
26.883348 -5.5095949 0.85725677
26.878004 -5.503859 0.85725677
26.872116 -5.4986854 0.85725677
26.86574 -5.4941254 0.85725677
26.858938 -5.4902248 0.85725677
26.851784 -5.4870229 0.85725677
26.844345 -5.484551 0.85725677
26.836697 -5.4828343 0.85725677
26.828913 -5.4818897 0.85725677
26.821075 -5.4817266 0.85725677
26.813261 -5.4823465 0.85725677
26.805548 -5.4837441 0.85725677
26.798012 -5.4859047 0.85725677
26.79073 -5.4888062 0.85725677
26.783773 -5.4924207 0.85725677
26.777214 -5.4967117 0.85725677
26.771114 -5.501636 0.85725677
26.765537 -5.5071445 0.85725677
26.760538 -5.5131826 0.85725677
26.756165 -5.5196896 0.85725677
26.752464 -5.5266004 0.85725677
26.749474 -5.5338459 0.85725677
26.747219 -5.5413542 0.85725677
26.745728 -5.5490499 0.85725677
26.74501 -5.5568562 0.85725677
26.745075 -5.5646949 0.85725677
26.745924 -5.5724883 0.85725677
26.747545 -5.5801578 0.85725677
26.749926 -5.5876269 0.85725677
26.753038 -5.5948215 0.85725677
26.756855 -5.6016693 0.85725677
26.761335 -5.6081014 0.85725677
26.766436 -5.6140547 0.85725677
26.772104 -5.6194687 0.85725677
26.778286 -5.62429 0.85725677
26.784918 -5.6284699 0.85725677
26.791933 -5.6319666 0.85725677
26.799263 -5.6347456 0.85725677
26.806835 -5.6367793 0.85725677
26.814571 -5.6380467 0.85725677
26.822395 -5.6385355 0.85725677
26.830229 -5.6382408 0.85725677
26.837994 -5.6371651 0.85725677
26.845612 -5.6353202 0.85725677
26.853008 -5.6327233 0.85725677
26.860109 -5.6294017 0.85725677
26.866842 -5.6253872 0.85725677
26.87314 -5.6207209 0.85725677
26.878942 -5.615449 0.85725677
26.88419 -5.6096239 0.85725677
26.888828 -5.6033044 0.85725677
26.892813 -5.5965533 0.85725677
26.896103 -5.5894384 0.85725677
26.898666 -5.5820303 0.85725677
26.900478 -5.5744033 0.85725677
26.90152 -5.5666337 0.85725677
26.846474 -5.5601172 0.85217595
26.846359 -5.5578103 0.85217595
26.846014 -5.5555263 0.85217595
26.845442 -5.5532885 0.85217595
26.84465 -5.5511189 0.85217595
26.843645 -5.5490389 0.85217595
26.842438 -5.5470695 0.85217595
26.84104 -5.5452309 0.85217595
26.839466 -5.5435405 0.85217595
26.83773 -5.542016 0.85217595
26.835852 -5.5406728 0.85217595
26.833847 -5.5395236 0.85217595
26.831739 -5.5385799 0.85217595
26.829548 -5.5378513 0.85217595
26.827293 -5.5373459 0.85217595
26.825001 -5.5370674 0.85217595
26.822691 -5.5370193 0.85217595
26.820389 -5.5372019 0.85217595
26.818115 -5.5376139 0.85217595
26.815895 -5.5382504 0.85217595
26.813749 -5.5391054 0.85217595
26.811701 -5.5401702 0.85217595
26.809767 -5.5414348 0.85217595
26.80797 -5.5428858 0.85217595
26.806326 -5.5445089 0.85217595
26.804853 -5.546288 0.85217595
26.803566 -5.5482049 0.85217595
26.802475 -5.5502415 0.85217595
26.801594 -5.5523763 0.85217595
26.80093 -5.5545888 0.85217595
26.800489 -5.5568562 0.85217595
26.800278 -5.5591564 0.85217595
26.800299 -5.5614662 0.85217595
26.800549 -5.5637622 0.85217595
26.801025 -5.5660224 0.85217595
26.801727 -5.568223 0.85217595
26.802645 -5.570343 0.85217595
26.803768 -5.5723605 0.85217595
26.805088 -5.5742559 0.85217595
26.806591 -5.5760102 0.85217595
26.808262 -5.5776052 0.85217595
26.810083 -5.5790257 0.85217595
26.812037 -5.5802574 0.85217595
26.814104 -5.5812879 0.85217595
26.816265 -5.5821066 0.85217595
26.818495 -5.582706 0.85217595
26.820774 -5.5830793 0.85217595
26.82308 -5.5832233 0.85217595
26.825388 -5.5831366 0.85217595
26.827677 -5.5828195 0.85217595
26.829922 -5.5822759 0.85217595
26.8321 -5.581511 0.85217595
26.834192 -5.5805321 0.85217595
26.836176 -5.579349 0.85217595
26.838032 -5.5779743 0.85217595
26.839743 -5.5764208 0.85217595
26.841288 -5.5747046 0.85217595
26.842655 -5.5728426 0.85217595
26.843828 -5.5708532 0.85217595
26.844799 -5.5687566 0.85217595
26.845554 -5.5665741 0.85217595
26.846087 -5.5643268 0.85217595
26.846394 -5.5620375 0.85217595
16.500616 -11.913647 0.11929744
16.500616 -11.913647 0.21929744
16.500616 -11.913647 0.31929743
16.500616 -11.913647 0.41929743
16.500616 -11.913647 0.51929742
16.500616 -11.913647 0.61929744
16.500616 -11.913647 0.71929747
16.500616 -11.913647 0.81929749
16.500616 -11.913647 0.91929752
16.500616 -11.913647 1.0192975
16.500616 -11.913647 1.1192975
16.500616 -11.913647 1.2192975
16.500616 -11.913647 1.3192976
16.500616 -11.813646 0.11929744
16.500616 -11.813646 0.21929744
16.500616 -11.813646 0.31929743
16.500616 -11.813646 0.41929743
16.500616 -11.813646 0.51929742
16.500616 -11.813646 0.61929744
16.500616 -11.813646 0.71929747
16.500616 -11.813646 0.81929749
16.500616 -11.813646 0.91929752
16.500616 -11.813646 1.0192975
16.500616 -11.813646 1.1192975
16.500616 -11.813646 1.2192975
16.500616 -11.813646 1.3192976
16.500616 -11.713646 0.11929744
16.500616 -11.713646 0.21929744
16.500616 -11.713646 0.31929743
16.500616 -11.713646 0.41929743
16.500616 -11.713646 0.51929742
16.500616 -11.713646 0.61929744
16.500616 -11.713646 0.71929747
16.500616 -11.713646 0.81929749
16.500616 -11.713646 0.91929752
16.500616 -11.713646 1.0192975
16.500616 -11.713646 1.1192975
16.500616 -11.713646 1.2192975
16.500616 -11.713646 1.3192976
16.500616 -11.613646 0.11929744
16.500616 -11.613646 0.21929744
16.500616 -11.613646 0.31929743
16.500616 -11.613646 0.41929743
16.500616 -11.613646 0.51929742
16.500616 -11.613646 0.61929744
16.500616 -11.613646 0.71929747
16.500616 -11.613646 0.81929749
16.500616 -11.613646 0.91929752
16.500616 -11.613646 1.0192975
16.500616 -11.613646 1.1192975
16.500616 -11.613646 1.2192975
16.500616 -11.613646 1.3192976
16.500616 -11.513645 0.11929744
16.500616 -11.513645 0.21929744
16.500616 -11.513645 0.31929743
16.500616 -11.513645 0.41929743
16.500616 -11.513645 0.51929742
16.500616 -11.513645 0.61929744
16.500616 -11.513645 0.71929747
16.500616 -11.513645 0.81929749
16.500616 -11.513645 0.91929752
16.500616 -11.513645 1.0192975
16.500616 -11.513645 1.1192975
16.500616 -11.513645 1.2192975
16.500616 -11.513645 1.3192976
16.500616 -11.413645 0.11929744
16.500616 -11.413645 0.21929744
16.500616 -11.413645 0.31929743
16.500616 -11.413645 0.41929743
16.500616 -11.413645 0.51929742
16.500616 -11.413645 0.61929744
16.500616 -11.413645 0.71929747
16.500616 -11.413645 0.81929749
16.500616 -11.413645 0.91929752
16.500616 -11.413645 1.0192975
16.500616 -11.413645 1.1192975
16.500616 -11.413645 1.2192975
16.500616 -11.413645 1.3192976
16.600616 -11.913647 0.11929744
16.600616 -11.913647 0.21929744
16.600616 -11.913647 0.31929743
16.600616 -11.913647 0.41929743
16.600616 -11.913647 0.51929742
16.600616 -11.913647 0.61929744
16.600616 -11.913647 0.71929747
16.600616 -11.913647 0.81929749
16.600616 -11.913647 0.91929752
16.600616 -11.913647 1.0192975
16.600616 -11.913647 1.1192975
16.600616 -11.913647 1.2192975
16.600616 -11.913647 1.3192976
16.600616 -11.813646 0.11929744
16.600616 -11.813646 0.21929744
16.600616 -11.813646 0.31929743
16.600616 -11.813646 0.41929743
16.600616 -11.813646 0.51929742
16.600616 -11.813646 0.61929744
16.600616 -11.813646 0.71929747
16.600616 -11.813646 0.81929749
16.600616 -11.813646 0.91929752
16.600616 -11.813646 1.0192975
16.600616 -11.813646 1.1192975
16.600616 -11.813646 1.2192975
16.600616 -11.813646 1.3192976
16.600616 -11.713646 0.11929744
16.600616 -11.713646 0.21929744
16.600616 -11.713646 0.31929743
16.600616 -11.713646 0.41929743
16.600616 -11.713646 0.51929742
16.600616 -11.713646 0.61929744
16.600616 -11.713646 0.71929747
16.600616 -11.713646 0.81929749
16.600616 -11.713646 0.91929752
16.600616 -11.713646 1.0192975
16.600616 -11.713646 1.1192975
16.600616 -11.713646 1.2192975
16.600616 -11.713646 1.3192976
16.600616 -11.613646 0.11929744
16.600616 -11.613646 0.21929744
16.600616 -11.613646 0.31929743
16.600616 -11.613646 0.41929743
16.600616 -11.613646 0.51929742
16.600616 -11.613646 0.61929744
16.600616 -11.613646 0.71929747
16.600616 -11.613646 0.81929749
16.600616 -11.613646 0.91929752
16.600616 -11.613646 1.0192975
16.600616 -11.613646 1.1192975
16.600616 -11.613646 1.2192975
16.600616 -11.613646 1.3192976
16.600616 -11.513645 0.11929744
16.600616 -11.513645 0.21929744
16.600616 -11.513645 0.31929743
16.600616 -11.513645 0.41929743
16.600616 -11.513645 0.51929742
16.600616 -11.513645 0.61929744
16.600616 -11.513645 0.71929747
16.600616 -11.513645 0.81929749
16.600616 -11.513645 0.91929752
16.600616 -11.513645 1.0192975
16.600616 -11.513645 1.1192975
16.600616 -11.513645 1.2192975
16.600616 -11.513645 1.3192976
16.600616 -11.413645 0.11929744
16.600616 -11.413645 0.21929744
16.600616 -11.413645 0.31929743
16.600616 -11.413645 0.41929743
16.600616 -11.413645 0.51929742
16.600616 -11.413645 0.61929744
16.600616 -11.413645 0.71929747
16.600616 -11.413645 0.81929749
16.600616 -11.413645 0.91929752
16.600616 -11.413645 1.0192975
16.600616 -11.413645 1.1192975
16.600616 -11.413645 1.2192975
16.600616 -11.413645 1.3192976
16.700617 -11.913647 0.11929744
16.700617 -11.913647 0.21929744
16.700617 -11.913647 0.31929743
16.700617 -11.913647 0.41929743
16.700617 -11.913647 0.51929742
16.700617 -11.913647 0.61929744
16.700617 -11.913647 0.71929747
16.700617 -11.913647 0.81929749
16.700617 -11.913647 0.91929752
16.700617 -11.913647 1.0192975
16.700617 -11.913647 1.1192975
16.700617 -11.913647 1.2192975
16.700617 -11.913647 1.3192976
16.700617 -11.813646 0.11929744
16.700617 -11.813646 0.21929744
16.700617 -11.813646 0.31929743
16.700617 -11.813646 0.41929743
16.700617 -11.813646 0.51929742
16.700617 -11.813646 0.61929744
16.700617 -11.813646 0.71929747
16.700617 -11.813646 0.81929749
16.700617 -11.813646 0.91929752
16.700617 -11.813646 1.0192975
16.700617 -11.813646 1.1192975
16.700617 -11.813646 1.2192975
16.700617 -11.813646 1.3192976
16.700617 -11.713646 0.11929744
16.700617 -11.713646 0.21929744
16.700617 -11.713646 0.31929743
16.700617 -11.713646 0.41929743
16.700617 -11.713646 0.51929742
16.700617 -11.713646 0.61929744
16.700617 -11.713646 0.71929747
16.700617 -11.713646 0.81929749
16.700617 -11.713646 0.91929752
16.700617 -11.713646 1.0192975
16.700617 -11.713646 1.1192975
16.700617 -11.713646 1.2192975
16.700617 -11.713646 1.3192976
16.700617 -11.613646 0.11929744
16.700617 -11.613646 0.21929744
16.700617 -11.613646 0.31929743
16.700617 -11.613646 0.41929743
16.700617 -11.613646 0.51929742
16.700617 -11.613646 0.61929744
16.700617 -11.613646 0.71929747
16.700617 -11.613646 0.81929749
16.700617 -11.613646 0.91929752
16.700617 -11.613646 1.0192975
16.700617 -11.613646 1.1192975
16.700617 -11.613646 1.2192975
16.700617 -11.613646 1.3192976
16.700617 -11.513645 0.11929744
16.700617 -11.513645 0.21929744
16.700617 -11.513645 0.31929743
16.700617 -11.513645 0.41929743
16.700617 -11.513645 0.51929742
16.700617 -11.513645 0.61929744
16.700617 -11.513645 0.71929747
16.700617 -11.513645 0.81929749
16.700617 -11.513645 0.91929752
16.700617 -11.513645 1.0192975
16.700617 -11.513645 1.1192975
16.700617 -11.513645 1.2192975
16.700617 -11.513645 1.3192976
16.700617 -11.413645 0.11929744
16.700617 -11.413645 0.21929744
16.700617 -11.413645 0.31929743
16.700617 -11.413645 0.41929743
16.700617 -11.413645 0.51929742
16.700617 -11.413645 0.61929744
16.700617 -11.413645 0.71929747
16.700617 -11.413645 0.81929749
16.700617 -11.413645 0.91929752
16.700617 -11.413645 1.0192975
16.700617 -11.413645 1.1192975
16.700617 -11.413645 1.2192975
16.700617 -11.413645 1.3192976
16.800617 -11.913647 0.11929744
16.800617 -11.913647 0.21929744
16.800617 -11.913647 0.31929743
16.800617 -11.913647 0.41929743
16.800617 -11.913647 0.51929742
16.800617 -11.913647 0.61929744
16.800617 -11.913647 0.71929747
16.800617 -11.913647 0.81929749
16.800617 -11.913647 0.91929752
16.800617 -11.913647 1.0192975
16.800617 -11.913647 1.1192975
16.800617 -11.913647 1.2192975
16.800617 -11.913647 1.3192976
16.800617 -11.813646 0.11929744
16.800617 -11.813646 0.21929744
16.800617 -11.813646 0.31929743
16.800617 -11.813646 0.41929743
16.800617 -11.813646 0.51929742
16.800617 -11.813646 0.61929744
16.800617 -11.813646 0.71929747
16.800617 -11.813646 0.81929749
16.800617 -11.813646 0.91929752
16.800617 -11.813646 1.0192975
16.800617 -11.813646 1.1192975
16.800617 -11.813646 1.2192975
16.800617 -11.813646 1.3192976
16.800617 -11.713646 0.11929744
16.800617 -11.713646 0.21929744
16.800617 -11.713646 0.31929743
16.800617 -11.713646 0.41929743
16.800617 -11.713646 0.51929742
16.800617 -11.713646 0.61929744
16.800617 -11.713646 0.71929747
16.800617 -11.713646 0.81929749
16.800617 -11.713646 0.91929752
16.800617 -11.713646 1.0192975
16.800617 -11.713646 1.1192975
16.800617 -11.713646 1.2192975
16.800617 -11.713646 1.3192976
16.800617 -11.613646 0.11929744
16.800617 -11.613646 0.21929744
16.800617 -11.613646 0.31929743
16.800617 -11.613646 0.41929743
16.800617 -11.613646 0.51929742
16.800617 -11.613646 0.61929744
16.800617 -11.613646 0.71929747
16.800617 -11.613646 0.81929749
16.800617 -11.613646 0.91929752
16.800617 -11.613646 1.0192975
16.800617 -11.613646 1.1192975
16.800617 -11.613646 1.2192975
16.800617 -11.613646 1.3192976
16.800617 -11.513645 0.11929744
16.800617 -11.513645 0.21929744
16.800617 -11.513645 0.31929743
16.800617 -11.513645 0.41929743
16.800617 -11.513645 0.51929742
16.800617 -11.513645 0.61929744
16.800617 -11.513645 0.71929747
16.800617 -11.513645 0.81929749
16.800617 -11.513645 0.91929752
16.800617 -11.513645 1.0192975
16.800617 -11.513645 1.1192975
16.800617 -11.513645 1.2192975
16.800617 -11.513645 1.3192976
16.800617 -11.413645 0.11929744
16.800617 -11.413645 0.21929744
16.800617 -11.413645 0.31929743
16.800617 -11.413645 0.41929743
16.800617 -11.413645 0.51929742
16.800617 -11.413645 0.61929744
16.800617 -11.413645 0.71929747
16.800617 -11.413645 0.81929749
16.800617 -11.413645 0.91929752
16.800617 -11.413645 1.0192975
16.800617 -11.413645 1.1192975
16.800617 -11.413645 1.2192975
16.800617 -11.413645 1.3192976
16.900618 -11.913647 0.11929744
16.900618 -11.913647 0.21929744
16.900618 -11.913647 0.31929743
16.900618 -11.913647 0.41929743
16.900618 -11.913647 0.51929742
16.900618 -11.913647 0.61929744
16.900618 -11.913647 0.71929747
16.900618 -11.913647 0.81929749
16.900618 -11.913647 0.91929752
16.900618 -11.913647 1.0192975
16.900618 -11.913647 1.1192975
16.900618 -11.913647 1.2192975
16.900618 -11.913647 1.3192976
16.900618 -11.813646 0.11929744
16.900618 -11.813646 0.21929744
16.900618 -11.813646 0.31929743
16.900618 -11.813646 0.41929743
16.900618 -11.813646 0.51929742
16.900618 -11.813646 0.61929744
16.900618 -11.813646 0.71929747
16.900618 -11.813646 0.81929749
16.900618 -11.813646 0.91929752
16.900618 -11.813646 1.0192975
16.900618 -11.813646 1.1192975
16.900618 -11.813646 1.2192975
16.900618 -11.813646 1.3192976
16.900618 -11.713646 0.11929744
16.900618 -11.713646 0.21929744
16.900618 -11.713646 0.31929743
16.900618 -11.713646 0.41929743
16.900618 -11.713646 0.51929742
16.900618 -11.713646 0.61929744
16.900618 -11.713646 0.71929747
16.900618 -11.713646 0.81929749
16.900618 -11.713646 0.91929752
16.900618 -11.713646 1.0192975
16.900618 -11.713646 1.1192975
16.900618 -11.713646 1.2192975
16.900618 -11.713646 1.3192976
16.900618 -11.613646 0.11929744
16.900618 -11.613646 0.21929744
16.900618 -11.613646 0.31929743
16.900618 -11.613646 0.41929743
16.900618 -11.613646 0.51929742
16.900618 -11.613646 0.61929744
16.900618 -11.613646 0.71929747
16.900618 -11.613646 0.81929749
16.900618 -11.613646 0.91929752
16.900618 -11.613646 1.0192975
16.900618 -11.613646 1.1192975
16.900618 -11.613646 1.2192975
16.900618 -11.613646 1.3192976
16.900618 -11.513645 0.11929744
16.900618 -11.513645 0.21929744
16.900618 -11.513645 0.31929743
16.900618 -11.513645 0.41929743
16.900618 -11.513645 0.51929742
16.900618 -11.513645 0.61929744
16.900618 -11.513645 0.71929747
16.900618 -11.513645 0.81929749
16.900618 -11.513645 0.91929752
16.900618 -11.513645 1.0192975
16.900618 -11.513645 1.1192975
16.900618 -11.513645 1.2192975
16.900618 -11.513645 1.3192976
16.900618 -11.413645 0.11929744
16.900618 -11.413645 0.21929744
16.900618 -11.413645 0.31929743
16.900618 -11.413645 0.41929743
16.900618 -11.413645 0.51929742
16.900618 -11.413645 0.61929744
16.900618 -11.413645 0.71929747
16.900618 -11.413645 0.81929749
16.900618 -11.413645 0.91929752
16.900618 -11.413645 1.0192975
16.900618 -11.413645 1.1192975
16.900618 -11.413645 1.2192975
16.900618 -11.413645 1.3192976
17.000618 -11.913647 0.11929744
17.000618 -11.913647 0.21929744
17.000618 -11.913647 0.31929743
17.000618 -11.913647 0.41929743
17.000618 -11.913647 0.51929742
17.000618 -11.913647 0.61929744
17.000618 -11.913647 0.71929747
17.000618 -11.913647 0.81929749
17.000618 -11.913647 0.91929752
17.000618 -11.913647 1.0192975
17.000618 -11.913647 1.1192975
17.000618 -11.913647 1.2192975
17.000618 -11.913647 1.3192976
17.000618 -11.813646 0.11929744
17.000618 -11.813646 0.21929744
17.000618 -11.813646 0.31929743
17.000618 -11.813646 0.41929743
17.000618 -11.813646 0.51929742
17.000618 -11.813646 0.61929744
17.000618 -11.813646 0.71929747
17.000618 -11.813646 0.81929749
17.000618 -11.813646 0.91929752
17.000618 -11.813646 1.0192975
17.000618 -11.813646 1.1192975
17.000618 -11.813646 1.2192975
17.000618 -11.813646 1.3192976
17.000618 -11.713646 0.11929744
17.000618 -11.713646 0.21929744
17.000618 -11.713646 0.31929743
17.000618 -11.713646 0.41929743
17.000618 -11.713646 0.51929742
17.000618 -11.713646 0.61929744
17.000618 -11.713646 0.71929747
17.000618 -11.713646 0.81929749
17.000618 -11.713646 0.91929752
17.000618 -11.713646 1.0192975
17.000618 -11.713646 1.1192975
17.000618 -11.713646 1.2192975
17.000618 -11.713646 1.3192976
17.000618 -11.613646 0.11929744
17.000618 -11.613646 0.21929744
17.000618 -11.613646 0.31929743
17.000618 -11.613646 0.41929743
17.000618 -11.613646 0.51929742
17.000618 -11.613646 0.61929744
17.000618 -11.613646 0.71929747
17.000618 -11.613646 0.81929749
17.000618 -11.613646 0.91929752
17.000618 -11.613646 1.0192975
17.000618 -11.613646 1.1192975
17.000618 -11.613646 1.2192975
17.000618 -11.613646 1.3192976
17.000618 -11.513645 0.11929744
17.000618 -11.513645 0.21929744
17.000618 -11.513645 0.31929743
17.000618 -11.513645 0.41929743
17.000618 -11.513645 0.51929742
17.000618 -11.513645 0.61929744
17.000618 -11.513645 0.71929747
17.000618 -11.513645 0.81929749
17.000618 -11.513645 0.91929752
17.000618 -11.513645 1.0192975
17.000618 -11.513645 1.1192975
17.000618 -11.513645 1.2192975
17.000618 -11.513645 1.3192976
17.000618 -11.413645 0.11929744
17.000618 -11.413645 0.21929744
17.000618 -11.413645 0.31929743
17.000618 -11.413645 0.41929743
17.000618 -11.413645 0.51929742
17.000618 -11.413645 0.61929744
17.000618 -11.413645 0.71929747
17.000618 -11.413645 0.81929749
17.000618 -11.413645 0.91929752
17.000618 -11.413645 1.0192975
17.000618 -11.413645 1.1192975
17.000618 -11.413645 1.2192975
17.000618 -11.413645 1.3192976
15.658854 -14.292335 0.48946929
15.658854 -14.292335 0.58946931
15.658854 -14.292335 0.68946934
15.658854 -14.292335 0.78946936
15.658854 -14.292335 0.88946939
15.658854 -14.292335 0.98946941
15.658854 -14.292335 1.0894694
15.658854 -14.292335 1.1894695
15.658854 -14.292335 1.2894695
15.658854 -14.292335 1.3894695
15.658854 -14.292335 1.4894695
15.658854 -14.292335 1.5894696
15.658854 -14.292335 1.6894696
15.658854 -14.292335 1.7894696
15.658854 -14.292335 1.8894696
15.658854 -14.292335 1.9894696
15.658854 -14.292335 2.0894697
15.658854 -14.192334 0.48946929
15.658854 -14.192334 0.58946931
15.658854 -14.192334 0.68946934
15.658854 -14.192334 0.78946936
15.658854 -14.192334 0.88946939
15.658854 -14.192334 0.98946941
15.658854 -14.192334 1.0894694
15.658854 -14.192334 1.1894695
15.658854 -14.192334 1.2894695
15.658854 -14.192334 1.3894695
15.658854 -14.192334 1.4894695
15.658854 -14.192334 1.5894696
15.658854 -14.192334 1.6894696
15.658854 -14.192334 1.7894696
15.658854 -14.192334 1.8894696
15.658854 -14.192334 1.9894696
15.658854 -14.192334 2.0894697
15.658854 -14.092334 0.48946929
15.658854 -14.092334 0.58946931
15.658854 -14.092334 0.68946934
15.658854 -14.092334 0.78946936
15.658854 -14.092334 0.88946939
15.658854 -14.092334 0.98946941
15.658854 -14.092334 1.0894694
15.658854 -14.092334 1.1894695
15.658854 -14.092334 1.2894695
15.658854 -14.092334 1.3894695
15.658854 -14.092334 1.4894695
15.658854 -14.092334 1.5894696
15.658854 -14.092334 1.6894696
15.658854 -14.092334 1.7894696
15.658854 -14.092334 1.8894696
15.658854 -14.092334 1.9894696
15.658854 -14.092334 2.0894697
15.658854 -13.992333 0.48946929
15.658854 -13.992333 0.58946931
15.658854 -13.992333 0.68946934
15.658854 -13.992333 0.78946936
15.658854 -13.992333 0.88946939
15.658854 -13.992333 0.98946941
15.658854 -13.992333 1.0894694
15.658854 -13.992333 1.1894695
15.658854 -13.992333 1.2894695
15.658854 -13.992333 1.3894695
15.658854 -13.992333 1.4894695
15.658854 -13.992333 1.5894696
15.658854 -13.992333 1.6894696
15.658854 -13.992333 1.7894696
15.658854 -13.992333 1.8894696
15.658854 -13.992333 1.9894696
15.658854 -13.992333 2.0894697
15.658854 -13.892333 0.48946929
15.658854 -13.892333 0.58946931
15.658854 -13.892333 0.68946934
15.658854 -13.892333 0.78946936
15.658854 -13.892333 0.88946939
15.658854 -13.892333 0.98946941
15.658854 -13.892333 1.0894694
15.658854 -13.892333 1.1894695
15.658854 -13.892333 1.2894695
15.658854 -13.892333 1.3894695
15.658854 -13.892333 1.4894695
15.658854 -13.892333 1.5894696
15.658854 -13.892333 1.6894696
15.658854 -13.892333 1.7894696
15.658854 -13.892333 1.8894696
15.658854 -13.892333 1.9894696
15.658854 -13.892333 2.0894697
15.658854 -13.792333 0.48946929
15.658854 -13.792333 0.58946931
15.658854 -13.792333 0.68946934
15.658854 -13.792333 0.78946936
15.658854 -13.792333 0.88946939
15.658854 -13.792333 0.98946941
15.658854 -13.792333 1.0894694
15.658854 -13.792333 1.1894695
15.658854 -13.792333 1.2894695
15.658854 -13.792333 1.3894695
15.658854 -13.792333 1.4894695
15.658854 -13.792333 1.5894696
15.658854 -13.792333 1.6894696
15.658854 -13.792333 1.7894696
15.658854 -13.792333 1.8894696
15.658854 -13.792333 1.9894696
15.658854 -13.792333 2.0894697
15.658854 -13.692332 0.48946929
15.658854 -13.692332 0.58946931
15.658854 -13.692332 0.68946934
15.658854 -13.692332 0.78946936
15.658854 -13.692332 0.88946939
15.658854 -13.692332 0.98946941
15.658854 -13.692332 1.0894694
15.658854 -13.692332 1.1894695
15.658854 -13.692332 1.2894695
15.658854 -13.692332 1.3894695
15.658854 -13.692332 1.4894695
15.658854 -13.692332 1.5894696
15.658854 -13.692332 1.6894696
15.658854 -13.692332 1.7894696
15.658854 -13.692332 1.8894696
15.658854 -13.692332 1.9894696
15.658854 -13.692332 2.0894697
15.658854 -13.592332 0.48946929
15.658854 -13.592332 0.58946931
15.658854 -13.592332 0.68946934
15.658854 -13.592332 0.78946936
15.658854 -13.592332 0.88946939
15.658854 -13.592332 0.98946941
15.658854 -13.592332 1.0894694
15.658854 -13.592332 1.1894695
15.658854 -13.592332 1.2894695
15.658854 -13.592332 1.3894695
15.658854 -13.592332 1.4894695
15.658854 -13.592332 1.5894696
15.658854 -13.592332 1.6894696
15.658854 -13.592332 1.7894696
15.658854 -13.592332 1.8894696
15.658854 -13.592332 1.9894696
15.658854 -13.592332 2.0894697
15.658854 -13.492332 0.48946929
15.658854 -13.492332 0.58946931
15.658854 -13.492332 0.68946934
15.658854 -13.492332 0.78946936
15.658854 -13.492332 0.88946939
15.658854 -13.492332 0.98946941
15.658854 -13.492332 1.0894694
15.658854 -13.492332 1.1894695
15.658854 -13.492332 1.2894695
15.658854 -13.492332 1.3894695
15.658854 -13.492332 1.4894695
15.658854 -13.492332 1.5894696
15.658854 -13.492332 1.6894696
15.658854 -13.492332 1.7894696
15.658854 -13.492332 1.8894696
15.658854 -13.492332 1.9894696
15.658854 -13.492332 2.0894697
15.658854 -13.392331 0.48946929
15.658854 -13.392331 0.58946931
15.658854 -13.392331 0.68946934
15.658854 -13.392331 0.78946936
15.658854 -13.392331 0.88946939
15.658854 -13.392331 0.98946941
15.658854 -13.392331 1.0894694
15.658854 -13.392331 1.1894695
15.658854 -13.392331 1.2894695
15.658854 -13.392331 1.3894695
15.658854 -13.392331 1.4894695
15.658854 -13.392331 1.5894696
15.658854 -13.392331 1.6894696
15.658854 -13.392331 1.7894696
15.658854 -13.392331 1.8894696
15.658854 -13.392331 1.9894696
15.658854 -13.392331 2.0894697
15.658854 -13.292331 0.48946929
15.658854 -13.292331 0.58946931
15.658854 -13.292331 0.68946934
15.658854 -13.292331 0.78946936
15.658854 -13.292331 0.88946939
15.658854 -13.292331 0.98946941
15.658854 -13.292331 1.0894694
15.658854 -13.292331 1.1894695
15.658854 -13.292331 1.2894695
15.658854 -13.292331 1.3894695
15.658854 -13.292331 1.4894695
15.658854 -13.292331 1.5894696
15.658854 -13.292331 1.6894696
15.658854 -13.292331 1.7894696
15.658854 -13.292331 1.8894696
15.658854 -13.292331 1.9894696
15.658854 -13.292331 2.0894697
15.658854 -13.19233 0.48946929
15.658854 -13.19233 0.58946931
15.658854 -13.19233 0.68946934
15.658854 -13.19233 0.78946936
15.658854 -13.19233 0.88946939
15.658854 -13.19233 0.98946941
15.658854 -13.19233 1.0894694
15.658854 -13.19233 1.1894695
15.658854 -13.19233 1.2894695
15.658854 -13.19233 1.3894695
15.658854 -13.19233 1.4894695
15.658854 -13.19233 1.5894696
15.658854 -13.19233 1.6894696
15.658854 -13.19233 1.7894696
15.658854 -13.19233 1.8894696
15.658854 -13.19233 1.9894696
15.658854 -13.19233 2.0894697
15.658854 -13.09233 0.48946929
15.658854 -13.09233 0.58946931
15.658854 -13.09233 0.68946934
15.658854 -13.09233 0.78946936
15.658854 -13.09233 0.88946939
15.658854 -13.09233 0.98946941
15.658854 -13.09233 1.0894694
15.658854 -13.09233 1.1894695
15.658854 -13.09233 1.2894695
15.658854 -13.09233 1.3894695
15.658854 -13.09233 1.4894695
15.658854 -13.09233 1.5894696
15.658854 -13.09233 1.6894696
15.658854 -13.09233 1.7894696
15.658854 -13.09233 1.8894696
15.658854 -13.09233 1.9894696
15.658854 -13.09233 2.0894697
15.658854 -12.99233 0.48946929
15.658854 -12.99233 0.58946931
15.658854 -12.99233 0.68946934
15.658854 -12.99233 0.78946936
15.658854 -12.99233 0.88946939
15.658854 -12.99233 0.98946941
15.658854 -12.99233 1.0894694
15.658854 -12.99233 1.1894695
15.658854 -12.99233 1.2894695
15.658854 -12.99233 1.3894695
15.658854 -12.99233 1.4894695
15.658854 -12.99233 1.5894696
15.658854 -12.99233 1.6894696
15.658854 -12.99233 1.7894696
15.658854 -12.99233 1.8894696
15.658854 -12.99233 1.9894696
15.658854 -12.99233 2.0894697
15.658854 -12.892329 0.48946929
15.658854 -12.892329 0.58946931
15.658854 -12.892329 0.68946934
15.658854 -12.892329 0.78946936
15.658854 -12.892329 0.88946939
15.658854 -12.892329 0.98946941
15.658854 -12.892329 1.0894694
15.658854 -12.892329 1.1894695
15.658854 -12.892329 1.2894695
15.658854 -12.892329 1.3894695
15.658854 -12.892329 1.4894695
15.658854 -12.892329 1.5894696
15.658854 -12.892329 1.6894696
15.658854 -12.892329 1.7894696
15.658854 -12.892329 1.8894696
15.658854 -12.892329 1.9894696
15.658854 -12.892329 2.0894697
15.758855 -14.292335 0.48946929
15.758855 -14.292335 0.58946931
15.758855 -14.292335 0.68946934
15.758855 -14.292335 0.78946936
15.758855 -14.292335 0.88946939
15.758855 -14.292335 0.98946941
15.758855 -14.292335 1.0894694
15.758855 -14.292335 1.1894695
15.758855 -14.292335 1.2894695
15.758855 -14.292335 1.3894695
15.758855 -14.292335 1.4894695
15.758855 -14.292335 1.5894696
15.758855 -14.292335 1.6894696
15.758855 -14.292335 1.7894696
15.758855 -14.292335 1.8894696
15.758855 -14.292335 1.9894696
15.758855 -14.292335 2.0894697
15.758855 -14.192334 0.48946929
15.758855 -14.192334 0.58946931
15.758855 -14.192334 0.68946934
15.758855 -14.192334 0.78946936
15.758855 -14.192334 0.88946939
15.758855 -14.192334 0.98946941
15.758855 -14.192334 1.0894694
15.758855 -14.192334 1.1894695
15.758855 -14.192334 1.2894695
15.758855 -14.192334 1.3894695
15.758855 -14.192334 1.4894695
15.758855 -14.192334 1.5894696
15.758855 -14.192334 1.6894696
15.758855 -14.192334 1.7894696
15.758855 -14.192334 1.8894696
15.758855 -14.192334 1.9894696
15.758855 -14.192334 2.0894697
15.758855 -14.092334 0.48946929
15.758855 -14.092334 0.58946931
15.758855 -14.092334 0.68946934
15.758855 -14.092334 0.78946936
15.758855 -14.092334 0.88946939
15.758855 -14.092334 0.98946941
15.758855 -14.092334 1.0894694
15.758855 -14.092334 1.1894695
15.758855 -14.092334 1.2894695
15.758855 -14.092334 1.3894695
15.758855 -14.092334 1.4894695
15.758855 -14.092334 1.5894696
15.758855 -14.092334 1.6894696
15.758855 -14.092334 1.7894696
15.758855 -14.092334 1.8894696
15.758855 -14.092334 1.9894696
15.758855 -14.092334 2.0894697
15.758855 -13.992333 0.48946929
15.758855 -13.992333 0.58946931
15.758855 -13.992333 0.68946934
15.758855 -13.992333 0.78946936
15.758855 -13.992333 0.88946939
15.758855 -13.992333 0.98946941
15.758855 -13.992333 1.0894694
15.758855 -13.992333 1.1894695
15.758855 -13.992333 1.2894695
15.758855 -13.992333 1.3894695
15.758855 -13.992333 1.4894695
15.758855 -13.992333 1.5894696
15.758855 -13.992333 1.6894696
15.758855 -13.992333 1.7894696
15.758855 -13.992333 1.8894696
15.758855 -13.992333 1.9894696
15.758855 -13.992333 2.0894697
15.758855 -13.892333 0.48946929
15.758855 -13.892333 0.58946931
15.758855 -13.892333 0.68946934
15.758855 -13.892333 0.78946936
15.758855 -13.892333 0.88946939
15.758855 -13.892333 0.98946941
15.758855 -13.892333 1.0894694
15.758855 -13.892333 1.1894695
15.758855 -13.892333 1.2894695
15.758855 -13.892333 1.3894695
15.758855 -13.892333 1.4894695
15.758855 -13.892333 1.5894696
15.758855 -13.892333 1.6894696
15.758855 -13.892333 1.7894696
15.758855 -13.892333 1.8894696
15.758855 -13.892333 1.9894696
15.758855 -13.892333 2.0894697
15.758855 -13.792333 0.48946929
15.758855 -13.792333 0.58946931
15.758855 -13.792333 0.68946934
15.758855 -13.792333 0.78946936
15.758855 -13.792333 0.88946939
15.758855 -13.792333 0.98946941
15.758855 -13.792333 1.0894694
15.758855 -13.792333 1.1894695
15.758855 -13.792333 1.2894695
15.758855 -13.792333 1.3894695
15.758855 -13.792333 1.4894695
15.758855 -13.792333 1.5894696
15.758855 -13.792333 1.6894696
15.758855 -13.792333 1.7894696
15.758855 -13.792333 1.8894696
15.758855 -13.792333 1.9894696
15.758855 -13.792333 2.0894697
15.758855 -13.692332 0.48946929
15.758855 -13.692332 0.58946931
15.758855 -13.692332 0.68946934
15.758855 -13.692332 0.78946936
15.758855 -13.692332 0.88946939
15.758855 -13.692332 0.98946941
15.758855 -13.692332 1.0894694
15.758855 -13.692332 1.1894695
15.758855 -13.692332 1.2894695
15.758855 -13.692332 1.3894695
15.758855 -13.692332 1.4894695
15.758855 -13.692332 1.5894696
15.758855 -13.692332 1.6894696
15.758855 -13.692332 1.7894696
15.758855 -13.692332 1.8894696
15.758855 -13.692332 1.9894696
15.758855 -13.692332 2.0894697
15.758855 -13.592332 0.48946929
15.758855 -13.592332 0.58946931
15.758855 -13.592332 0.68946934
15.758855 -13.592332 0.78946936
15.758855 -13.592332 0.88946939
15.758855 -13.592332 0.98946941
15.758855 -13.592332 1.0894694
15.758855 -13.592332 1.1894695
15.758855 -13.592332 1.2894695
15.758855 -13.592332 1.3894695
15.758855 -13.592332 1.4894695
15.758855 -13.592332 1.5894696
15.758855 -13.592332 1.6894696
15.758855 -13.592332 1.7894696
15.758855 -13.592332 1.8894696
15.758855 -13.592332 1.9894696
15.758855 -13.592332 2.0894697
15.758855 -13.492332 0.48946929
15.758855 -13.492332 0.58946931
15.758855 -13.492332 0.68946934
15.758855 -13.492332 0.78946936
15.758855 -13.492332 0.88946939
15.758855 -13.492332 0.98946941
15.758855 -13.492332 1.0894694
15.758855 -13.492332 1.1894695
15.758855 -13.492332 1.2894695
15.758855 -13.492332 1.3894695
15.758855 -13.492332 1.4894695
15.758855 -13.492332 1.5894696
15.758855 -13.492332 1.6894696
15.758855 -13.492332 1.7894696
15.758855 -13.492332 1.8894696
15.758855 -13.492332 1.9894696
15.758855 -13.492332 2.0894697
15.758855 -13.392331 0.48946929
15.758855 -13.392331 0.58946931
15.758855 -13.392331 0.68946934
15.758855 -13.392331 0.78946936
15.758855 -13.392331 0.88946939
15.758855 -13.392331 0.98946941
15.758855 -13.392331 1.0894694
15.758855 -13.392331 1.1894695
15.758855 -13.392331 1.2894695
15.758855 -13.392331 1.3894695
15.758855 -13.392331 1.4894695
15.758855 -13.392331 1.5894696
15.758855 -13.392331 1.6894696
15.758855 -13.392331 1.7894696
15.758855 -13.392331 1.8894696
15.758855 -13.392331 1.9894696
15.758855 -13.392331 2.0894697
15.758855 -13.292331 0.48946929
15.758855 -13.292331 0.58946931
15.758855 -13.292331 0.68946934
15.758855 -13.292331 0.78946936
15.758855 -13.292331 0.88946939
15.758855 -13.292331 0.98946941
15.758855 -13.292331 1.0894694
15.758855 -13.292331 1.1894695
15.758855 -13.292331 1.2894695
15.758855 -13.292331 1.3894695
15.758855 -13.292331 1.4894695
15.758855 -13.292331 1.5894696
15.758855 -13.292331 1.6894696
15.758855 -13.292331 1.7894696
15.758855 -13.292331 1.8894696
15.758855 -13.292331 1.9894696
15.758855 -13.292331 2.0894697
15.758855 -13.19233 0.48946929
15.758855 -13.19233 0.58946931
15.758855 -13.19233 0.68946934
15.758855 -13.19233 0.78946936
15.758855 -13.19233 0.88946939
15.758855 -13.19233 0.98946941
15.758855 -13.19233 1.0894694
15.758855 -13.19233 1.1894695
15.758855 -13.19233 1.2894695
15.758855 -13.19233 1.3894695
15.758855 -13.19233 1.4894695
15.758855 -13.19233 1.5894696
15.758855 -13.19233 1.6894696
15.758855 -13.19233 1.7894696
15.758855 -13.19233 1.8894696
15.758855 -13.19233 1.9894696
15.758855 -13.19233 2.0894697
15.758855 -13.09233 0.48946929
15.758855 -13.09233 0.58946931
15.758855 -13.09233 0.68946934
15.758855 -13.09233 0.78946936
15.758855 -13.09233 0.88946939
15.758855 -13.09233 0.98946941
15.758855 -13.09233 1.0894694
15.758855 -13.09233 1.1894695
15.758855 -13.09233 1.2894695
15.758855 -13.09233 1.3894695
15.758855 -13.09233 1.4894695
15.758855 -13.09233 1.5894696
15.758855 -13.09233 1.6894696
15.758855 -13.09233 1.7894696
15.758855 -13.09233 1.8894696
15.758855 -13.09233 1.9894696
15.758855 -13.09233 2.0894697
15.758855 -12.99233 0.48946929
15.758855 -12.99233 0.58946931
15.758855 -12.99233 0.68946934
15.758855 -12.99233 0.78946936
15.758855 -12.99233 0.88946939
15.758855 -12.99233 0.98946941
15.758855 -12.99233 1.0894694
15.758855 -12.99233 1.1894695
15.758855 -12.99233 1.2894695
15.758855 -12.99233 1.3894695
15.758855 -12.99233 1.4894695
15.758855 -12.99233 1.5894696
15.758855 -12.99233 1.6894696
15.758855 -12.99233 1.7894696
15.758855 -12.99233 1.8894696
15.758855 -12.99233 1.9894696
15.758855 -12.99233 2.0894697
15.758855 -12.892329 0.48946929
15.758855 -12.892329 0.58946931
15.758855 -12.892329 0.68946934
15.758855 -12.892329 0.78946936
15.758855 -12.892329 0.88946939
15.758855 -12.892329 0.98946941
15.758855 -12.892329 1.0894694
15.758855 -12.892329 1.1894695
15.758855 -12.892329 1.2894695
15.758855 -12.892329 1.3894695
15.758855 -12.892329 1.4894695
15.758855 -12.892329 1.5894696
15.758855 -12.892329 1.6894696
15.758855 -12.892329 1.7894696
15.758855 -12.892329 1.8894696
15.758855 -12.892329 1.9894696
15.758855 -12.892329 2.0894697
15.858855 -14.292335 0.48946929
15.858855 -14.292335 0.58946931
15.858855 -14.292335 0.68946934
15.858855 -14.292335 0.78946936
15.858855 -14.292335 0.88946939
15.858855 -14.292335 0.98946941
15.858855 -14.292335 1.0894694
15.858855 -14.292335 1.1894695
15.858855 -14.292335 1.2894695
15.858855 -14.292335 1.3894695
15.858855 -14.292335 1.4894695
15.858855 -14.292335 1.5894696
15.858855 -14.292335 1.6894696
15.858855 -14.292335 1.7894696
15.858855 -14.292335 1.8894696
15.858855 -14.292335 1.9894696
15.858855 -14.292335 2.0894697
15.858855 -14.192334 0.48946929
15.858855 -14.192334 0.58946931
15.858855 -14.192334 0.68946934
15.858855 -14.192334 0.78946936
15.858855 -14.192334 0.88946939
15.858855 -14.192334 0.98946941
15.858855 -14.192334 1.0894694
15.858855 -14.192334 1.1894695
15.858855 -14.192334 1.2894695
15.858855 -14.192334 1.3894695
15.858855 -14.192334 1.4894695
15.858855 -14.192334 1.5894696
15.858855 -14.192334 1.6894696
15.858855 -14.192334 1.7894696
15.858855 -14.192334 1.8894696
15.858855 -14.192334 1.9894696
15.858855 -14.192334 2.0894697
15.858855 -14.092334 0.48946929
15.858855 -14.092334 0.58946931
15.858855 -14.092334 0.68946934
15.858855 -14.092334 0.78946936
15.858855 -14.092334 0.88946939
15.858855 -14.092334 0.98946941
15.858855 -14.092334 1.0894694
15.858855 -14.092334 1.1894695
15.858855 -14.092334 1.2894695
15.858855 -14.092334 1.3894695
15.858855 -14.092334 1.4894695
15.858855 -14.092334 1.5894696
15.858855 -14.092334 1.6894696
15.858855 -14.092334 1.7894696
15.858855 -14.092334 1.8894696
15.858855 -14.092334 1.9894696
15.858855 -14.092334 2.0894697
15.858855 -13.992333 0.48946929
15.858855 -13.992333 0.58946931
15.858855 -13.992333 0.68946934
15.858855 -13.992333 0.78946936
15.858855 -13.992333 0.88946939
15.858855 -13.992333 0.98946941
15.858855 -13.992333 1.0894694
15.858855 -13.992333 1.1894695
15.858855 -13.992333 1.2894695
15.858855 -13.992333 1.3894695
15.858855 -13.992333 1.4894695
15.858855 -13.992333 1.5894696
15.858855 -13.992333 1.6894696
15.858855 -13.992333 1.7894696
15.858855 -13.992333 1.8894696
15.858855 -13.992333 1.9894696
15.858855 -13.992333 2.0894697
15.858855 -13.892333 0.48946929
15.858855 -13.892333 0.58946931
15.858855 -13.892333 0.68946934
15.858855 -13.892333 0.78946936
15.858855 -13.892333 0.88946939
15.858855 -13.892333 0.98946941
15.858855 -13.892333 1.0894694
15.858855 -13.892333 1.1894695
15.858855 -13.892333 1.2894695
15.858855 -13.892333 1.3894695
15.858855 -13.892333 1.4894695
15.858855 -13.892333 1.5894696
15.858855 -13.892333 1.6894696
15.858855 -13.892333 1.7894696
15.858855 -13.892333 1.8894696
15.858855 -13.892333 1.9894696
15.858855 -13.892333 2.0894697
15.858855 -13.792333 0.48946929
15.858855 -13.792333 0.58946931
15.858855 -13.792333 0.68946934
15.858855 -13.792333 0.78946936
15.858855 -13.792333 0.88946939
15.858855 -13.792333 0.98946941
15.858855 -13.792333 1.0894694
15.858855 -13.792333 1.1894695
15.858855 -13.792333 1.2894695
15.858855 -13.792333 1.3894695
15.858855 -13.792333 1.4894695
15.858855 -13.792333 1.5894696
15.858855 -13.792333 1.6894696
15.858855 -13.792333 1.7894696
15.858855 -13.792333 1.8894696
15.858855 -13.792333 1.9894696
15.858855 -13.792333 2.0894697
15.858855 -13.692332 0.48946929
15.858855 -13.692332 0.58946931
15.858855 -13.692332 0.68946934
15.858855 -13.692332 0.78946936
15.858855 -13.692332 0.88946939
15.858855 -13.692332 0.98946941
15.858855 -13.692332 1.0894694
15.858855 -13.692332 1.1894695
15.858855 -13.692332 1.2894695
15.858855 -13.692332 1.3894695
15.858855 -13.692332 1.4894695
15.858855 -13.692332 1.5894696
15.858855 -13.692332 1.6894696
15.858855 -13.692332 1.7894696
15.858855 -13.692332 1.8894696
15.858855 -13.692332 1.9894696
15.858855 -13.692332 2.0894697
15.858855 -13.592332 0.48946929
15.858855 -13.592332 0.58946931
15.858855 -13.592332 0.68946934
15.858855 -13.592332 0.78946936
15.858855 -13.592332 0.88946939
15.858855 -13.592332 0.98946941
15.858855 -13.592332 1.0894694
15.858855 -13.592332 1.1894695
15.858855 -13.592332 1.2894695
15.858855 -13.592332 1.3894695
15.858855 -13.592332 1.4894695
15.858855 -13.592332 1.5894696
15.858855 -13.592332 1.6894696
15.858855 -13.592332 1.7894696
15.858855 -13.592332 1.8894696
15.858855 -13.592332 1.9894696
15.858855 -13.592332 2.0894697
15.858855 -13.492332 0.48946929
15.858855 -13.492332 0.58946931
15.858855 -13.492332 0.68946934
15.858855 -13.492332 0.78946936
15.858855 -13.492332 0.88946939
15.858855 -13.492332 0.98946941
15.858855 -13.492332 1.0894694
15.858855 -13.492332 1.1894695
15.858855 -13.492332 1.2894695
15.858855 -13.492332 1.3894695
15.858855 -13.492332 1.4894695
15.858855 -13.492332 1.5894696
15.858855 -13.492332 1.6894696
15.858855 -13.492332 1.7894696
15.858855 -13.492332 1.8894696
15.858855 -13.492332 1.9894696
15.858855 -13.492332 2.0894697
15.858855 -13.392331 0.48946929
15.858855 -13.392331 0.58946931
15.858855 -13.392331 0.68946934
15.858855 -13.392331 0.78946936
15.858855 -13.392331 0.88946939
15.858855 -13.392331 0.98946941
15.858855 -13.392331 1.0894694
15.858855 -13.392331 1.1894695
15.858855 -13.392331 1.2894695
15.858855 -13.392331 1.3894695
15.858855 -13.392331 1.4894695
15.858855 -13.392331 1.5894696
15.858855 -13.392331 1.6894696
15.858855 -13.392331 1.7894696
15.858855 -13.392331 1.8894696
15.858855 -13.392331 1.9894696
15.858855 -13.392331 2.0894697
15.858855 -13.292331 0.48946929
15.858855 -13.292331 0.58946931
15.858855 -13.292331 0.68946934
15.858855 -13.292331 0.78946936
15.858855 -13.292331 0.88946939
15.858855 -13.292331 0.98946941
15.858855 -13.292331 1.0894694
15.858855 -13.292331 1.1894695
15.858855 -13.292331 1.2894695
15.858855 -13.292331 1.3894695
15.858855 -13.292331 1.4894695
15.858855 -13.292331 1.5894696
15.858855 -13.292331 1.6894696
15.858855 -13.292331 1.7894696
15.858855 -13.292331 1.8894696
15.858855 -13.292331 1.9894696
15.858855 -13.292331 2.0894697
15.858855 -13.19233 0.48946929
15.858855 -13.19233 0.58946931
15.858855 -13.19233 0.68946934
15.858855 -13.19233 0.78946936
15.858855 -13.19233 0.88946939
15.858855 -13.19233 0.98946941
15.858855 -13.19233 1.0894694
15.858855 -13.19233 1.1894695
15.858855 -13.19233 1.2894695
15.858855 -13.19233 1.3894695
15.858855 -13.19233 1.4894695
15.858855 -13.19233 1.5894696
15.858855 -13.19233 1.6894696
15.858855 -13.19233 1.7894696
15.858855 -13.19233 1.8894696
15.858855 -13.19233 1.9894696
15.858855 -13.19233 2.0894697
15.858855 -13.09233 0.48946929
15.858855 -13.09233 0.58946931
15.858855 -13.09233 0.68946934
15.858855 -13.09233 0.78946936
15.858855 -13.09233 0.88946939
15.858855 -13.09233 0.98946941
15.858855 -13.09233 1.0894694
15.858855 -13.09233 1.1894695
15.858855 -13.09233 1.2894695
15.858855 -13.09233 1.3894695
15.858855 -13.09233 1.4894695
15.858855 -13.09233 1.5894696
15.858855 -13.09233 1.6894696
15.858855 -13.09233 1.7894696
15.858855 -13.09233 1.8894696
15.858855 -13.09233 1.9894696
15.858855 -13.09233 2.0894697
15.858855 -12.99233 0.48946929
15.858855 -12.99233 0.58946931
15.858855 -12.99233 0.68946934
15.858855 -12.99233 0.78946936
15.858855 -12.99233 0.88946939
15.858855 -12.99233 0.98946941
15.858855 -12.99233 1.0894694
15.858855 -12.99233 1.1894695
15.858855 -12.99233 1.2894695
15.858855 -12.99233 1.3894695
15.858855 -12.99233 1.4894695
15.858855 -12.99233 1.5894696
15.858855 -12.99233 1.6894696
15.858855 -12.99233 1.7894696
15.858855 -12.99233 1.8894696
15.858855 -12.99233 1.9894696
15.858855 -12.99233 2.0894697
15.858855 -12.892329 0.48946929
15.858855 -12.892329 0.58946931
15.858855 -12.892329 0.68946934
15.858855 -12.892329 0.78946936
15.858855 -12.892329 0.88946939
15.858855 -12.892329 0.98946941
15.858855 -12.892329 1.0894694
15.858855 -12.892329 1.1894695
15.858855 -12.892329 1.2894695
15.858855 -12.892329 1.3894695
15.858855 -12.892329 1.4894695
15.858855 -12.892329 1.5894696
15.858855 -12.892329 1.6894696
15.858855 -12.892329 1.7894696
15.858855 -12.892329 1.8894696
15.858855 -12.892329 1.9894696
15.858855 -12.892329 2.0894697
15.958856 -14.292335 0.48946929
15.958856 -14.292335 0.58946931
15.958856 -14.292335 0.68946934
15.958856 -14.292335 0.78946936
15.958856 -14.292335 0.88946939
15.958856 -14.292335 0.98946941
15.958856 -14.292335 1.0894694
15.958856 -14.292335 1.1894695
15.958856 -14.292335 1.2894695
15.958856 -14.292335 1.3894695
15.958856 -14.292335 1.4894695
15.958856 -14.292335 1.5894696
15.958856 -14.292335 1.6894696
15.958856 -14.292335 1.7894696
15.958856 -14.292335 1.8894696
15.958856 -14.292335 1.9894696
15.958856 -14.292335 2.0894697
15.958856 -14.192334 0.48946929
15.958856 -14.192334 0.58946931
15.958856 -14.192334 0.68946934
15.958856 -14.192334 0.78946936
15.958856 -14.192334 0.88946939
15.958856 -14.192334 0.98946941
15.958856 -14.192334 1.0894694
15.958856 -14.192334 1.1894695
15.958856 -14.192334 1.2894695
15.958856 -14.192334 1.3894695
15.958856 -14.192334 1.4894695
15.958856 -14.192334 1.5894696
15.958856 -14.192334 1.6894696
15.958856 -14.192334 1.7894696
15.958856 -14.192334 1.8894696
15.958856 -14.192334 1.9894696
15.958856 -14.192334 2.0894697
15.958856 -14.092334 0.48946929
15.958856 -14.092334 0.58946931
15.958856 -14.092334 0.68946934
15.958856 -14.092334 0.78946936
15.958856 -14.092334 0.88946939
15.958856 -14.092334 0.98946941
15.958856 -14.092334 1.0894694
15.958856 -14.092334 1.1894695
15.958856 -14.092334 1.2894695
15.958856 -14.092334 1.3894695
15.958856 -14.092334 1.4894695
15.958856 -14.092334 1.5894696
15.958856 -14.092334 1.6894696
15.958856 -14.092334 1.7894696
15.958856 -14.092334 1.8894696
15.958856 -14.092334 1.9894696
15.958856 -14.092334 2.0894697
15.958856 -13.992333 0.48946929
15.958856 -13.992333 0.58946931
15.958856 -13.992333 0.68946934
15.958856 -13.992333 0.78946936
15.958856 -13.992333 0.88946939
15.958856 -13.992333 0.98946941
15.958856 -13.992333 1.0894694
15.958856 -13.992333 1.1894695
15.958856 -13.992333 1.2894695
15.958856 -13.992333 1.3894695
15.958856 -13.992333 1.4894695
15.958856 -13.992333 1.5894696
15.958856 -13.992333 1.6894696
