# .PCD v0.7 - Point Cloud Data file format
VERSION 0.7
FIELDS x y z
SIZE 4 4 4
TYPE F F F
COUNT 1 1 1
WIDTH 1561
HEIGHT 1
VIEWPOINT 0 0 0 1 0 0 0
POINTS 1561
DATA ascii
29.84251 1.4754666 1.2791604
29.878065 1.5523455 -0.52083969
29.878065 1.5523455 -0.4208397
29.878065 1.5523455 -0.3208397
29.878065 1.5523455 -0.22083971
29.878065 1.5523455 -0.12083971
29.878065 1.5523455 -0.020839706
29.878065 1.5523455 0.079160295
29.878065 1.5523455 0.1791603
29.878065 1.5523455 0.27916029
29.878065 1.5523455 0.37916028
29.878065 1.5523455 0.47916028
29.878065 1.5523455 0.57916027
29.878065 1.5523455 0.6791603
29.878065 1.5523455 0.77916032
29.878065 1.5523455 0.87916034
29.878065 1.5523455 0.97916037
29.878065 1.5523455 1.0791603
29.878065 1.5523455 1.1791604
29.878065 1.5523455 1.2791604
29.905767 1.63239 -0.52083969
29.905767 1.63239 -0.4208397
29.905767 1.63239 -0.3208397
29.905767 1.63239 -0.22083971
29.905767 1.63239 -0.12083971
29.905767 1.63239 -0.020839706
29.905767 1.63239 0.079160295
29.905767 1.63239 0.1791603
29.905767 1.63239 0.27916029
29.905767 1.63239 0.37916028
29.905767 1.63239 0.47916028
29.905767 1.63239 0.57916027
29.905767 1.63239 0.6791603
29.905767 1.63239 0.77916032
29.905767 1.63239 0.87916034
29.905767 1.63239 0.97916037
29.905767 1.63239 1.0791603
29.905767 1.63239 1.1791604
29.905767 1.63239 1.2791604
29.925341 1.7148004 -0.52083969
29.925341 1.7148004 -0.4208397
29.925341 1.7148004 -0.3208397
29.925341 1.7148004 -0.22083971
29.925341 1.7148004 -0.12083971
29.925341 1.7148004 -0.020839706
29.925341 1.7148004 0.079160295
29.925341 1.7148004 0.1791603
29.925341 1.7148004 0.27916029
29.925341 1.7148004 0.37916028
29.925341 1.7148004 0.47916028
29.925341 1.7148004 0.57916027
29.925341 1.7148004 0.6791603
29.925341 1.7148004 0.77916032
29.925341 1.7148004 0.87916034
29.925341 1.7148004 0.97916037
29.925341 1.7148004 1.0791603
29.925341 1.7148004 1.1791604
29.925341 1.7148004 1.2791604
29.93659 1.7987529 -0.52083969
29.93659 1.7987529 -0.4208397
29.93659 1.7987529 -0.3208397
29.93659 1.7987529 -0.22083971
29.93659 1.7987529 -0.12083971
29.93659 1.7987529 -0.020839706
29.93659 1.7987529 0.079160295
29.93659 1.7987529 0.1791603
29.93659 1.7987529 0.27916029
29.93659 1.7987529 0.37916028
29.93659 1.7987529 0.47916028
29.93659 1.7987529 0.57916027
29.93659 1.7987529 0.6791603
29.93659 1.7987529 0.77916032
29.93659 1.7987529 0.87916034
29.93659 1.7987529 0.97916037
29.93659 1.7987529 1.0791603
29.93659 1.7987529 1.1791604
29.93659 1.7987529 1.2791604
23.670258 -13.250395 2.2917914
23.670258 -13.250395 2.2917914
23.670258 -13.250395 2.2917914
23.670258 -13.250395 2.2917914
23.670258 -13.250395 2.2917914
23.670258 -13.250395 2.2917914
23.670258 -13.250395 2.2917914
23.670258 -13.250395 2.2917914
23.670258 -13.250395 2.2917914
23.670258 -13.250395 2.2917914
23.670258 -13.250395 2.2917914
23.670258 -13.250395 2.2917914
23.670258 -13.250395 2.2917914
23.670258 -13.250395 2.2917914
23.670258 -13.250395 2.2917914
23.670258 -13.250395 2.2917914
23.670258 -13.250395 2.2917914
23.670258 -13.250395 2.2917914
23.670258 -13.250395 2.2917914
23.670258 -13.250395 2.2917914
23.670258 -13.250395 2.2917914
23.670258 -13.250395 2.2917914
23.670258 -13.250395 2.2917914
23.670258 -13.250395 2.2917914
23.670258 -13.250395 2.2917914
23.670258 -13.250395 2.2917914
23.670258 -13.250395 2.2917914
23.670258 -13.250395 2.2917914
23.670258 -13.250395 2.2917914
23.670258 -13.250395 2.2917914
23.670258 -13.250395 2.2917914
23.670258 -13.250395 2.2917914
23.670258 -13.250395 2.2917914
23.670258 -13.250395 2.2917914
23.670258 -13.250395 2.2917914
23.670258 -13.250395 2.2917914
23.670258 -13.250395 2.2917914
23.670258 -13.250395 2.2917914
23.670258 -13.250395 2.2917914
23.670258 -13.250395 2.2917914
23.670258 -13.250395 2.2917914
23.670258 -13.250395 2.2917914
23.670258 -13.250395 2.2917914
23.670258 -13.250395 2.2917914
23.670258 -13.250395 2.2917914
23.670258 -13.250395 2.2917914
23.670258 -13.250395 2.2917914
23.670258 -13.250395 2.2917914
23.670258 -13.250395 2.2917914
23.670258 -13.250395 2.2917914
23.670258 -13.250395 2.2917914
23.670258 -13.250395 2.2917914
23.670258 -13.250395 2.2917914
23.670258 -13.250395 2.2917914
23.670258 -13.250395 2.2917914
23.670258 -13.250395 2.2917914
23.670258 -13.250395 2.2917914
23.670258 -13.250395 2.2917914
23.670258 -13.250395 2.2917914
23.670258 -13.250395 2.2917914
23.670258 -13.250395 2.2917914
23.670258 -13.250395 2.2917914
23.670258 -13.250395 2.2917914
23.710413 -13.250395 2.289782
23.710213 -13.246386 2.289782
23.709614 -13.242417 2.289782
23.70862 -13.238528 2.289782
23.707243 -13.234757 2.289782
23.705498 -13.231143 2.289782
23.7034 -13.227721 2.289782
23.700972 -13.224525 2.289782
23.698235 -13.221588 2.289782
23.695219 -13.21894 2.289782
23.691954 -13.216604 2.289782
23.688473 -13.214607 2.289782
23.684809 -13.212968 2.289782
23.681 -13.211702 2.289782
23.677082 -13.210823 2.289782
23.673098 -13.21034 2.289782
23.669085 -13.210256 2.289782
23.665083 -13.210573 2.289782
23.661135 -13.211288 2.289782
23.657276 -13.212395 2.289782
23.653547 -13.213881 2.289782
23.649984 -13.215732 2.289782
23.646626 -13.217929 2.289782
23.643503 -13.22045 2.289782
23.640646 -13.22327 2.289782
23.638086 -13.226362 2.289782
23.635849 -13.229694 2.289782
23.633953 -13.233232 2.289782
23.632421 -13.236943 2.289782
23.631268 -13.240788 2.289782
23.630503 -13.244728 2.289782
23.630136 -13.248725 2.289782
23.630171 -13.252739 2.289782
23.630604 -13.256729 2.289782
23.631435 -13.260656 2.289782
23.632652 -13.264481 2.289782
23.634247 -13.268165 2.289782
23.636202 -13.271671 2.289782
23.638494 -13.274964 2.289782
23.641108 -13.278013 2.289782
23.644011 -13.280785 2.289782
23.647175 -13.283254 2.289782
23.65057 -13.285394 2.289782
23.654163 -13.287185 2.289782
23.657917 -13.288608 2.289782
23.661793 -13.289649 2.289782
23.665754 -13.290298 2.289782
23.66976 -13.290548 2.289782
23.673771 -13.290397 2.289782
23.677748 -13.289846 2.289782
23.681648 -13.288901 2.289782
23.685436 -13.287572 2.289782
23.689072 -13.285871 2.289782
23.692518 -13.283815 2.289782
23.695744 -13.281426 2.289782
23.698715 -13.278727 2.289782
23.701401 -13.275744 2.289782
23.703777 -13.272509 2.289782
23.705816 -13.269052 2.289782
23.707502 -13.265409 2.289782
23.708815 -13.261615 2.289782
23.709742 -13.25771 2.289782
23.710276 -13.253732 2.289782
23.750168 -13.250395 2.2837737
23.749769 -13.242417 2.2837737
23.748575 -13.234519 2.2837737
23.746599 -13.22678 2.2837737
23.74386 -13.219276 2.2837737
23.740387 -13.212084 2.2837737
23.736212 -13.205274 2.2837737
23.731377 -13.198915 2.2837737
23.725933 -13.19307 2.2837737
23.719931 -13.187799 2.2837737
23.713434 -13.183152 2.2837737
23.706505 -13.179177 2.2837737
23.699213 -13.175915 2.2837737
23.691633 -13.173396 2.2837737
23.68384 -13.171646 2.2837737
23.675911 -13.170684 2.2837737
23.667925 -13.170518 2.2837737
23.659962 -13.17115 2.2837737
23.652102 -13.172574 2.2837737
23.644423 -13.174775 2.2837737
23.637003 -13.177732 2.2837737
23.629915 -13.181415 2.2837737
23.62323 -13.185787 2.2837737
23.617014 -13.190804 2.2837737
23.611332 -13.196418 2.2837737
23.606237 -13.20257 2.2837737
23.601782 -13.209201 2.2837737
23.598013 -13.216243 2.2837737
23.594963 -13.223625 2.2837737
23.592667 -13.231277 2.2837737
23.591146 -13.239118 2.2837737
23.590416 -13.247072 2.2837737
23.590483 -13.255059 2.2837737
23.591347 -13.263 2.2837737
23.593 -13.270815 2.2837737
23.595425 -13.278426 2.2837737
23.598597 -13.285757 2.2837737
23.602486 -13.292734 2.2837737
23.60705 -13.299289 2.2837737
23.612247 -13.305355 2.2837737
23.618025 -13.310872 2.2837737
23.624323 -13.315784 2.2837737
23.631081 -13.320044 2.2837737
23.638229 -13.323606 2.2837737
23.645699 -13.326438 2.2837737
23.653412 -13.32851 2.2837737
23.661295 -13.329802 2.2837737
23.669268 -13.330299 2.2837737
23.67725 -13.33 2.2837737
23.685162 -13.328904 2.2837737
23.692924 -13.327024 2.2837737
23.700462 -13.324378 2.2837737
23.707697 -13.320992 2.2837737
23.714558 -13.316902 2.2837737
23.720976 -13.312147 2.2837737
23.726889 -13.306775 2.2837737
23.732233 -13.30084 2.2837737
23.736959 -13.294401 2.2837737
23.74102 -13.287522 2.2837737
23.744373 -13.280272 2.2837737
23.746986 -13.272723 2.2837737
23.748831 -13.264952 2.2837737
23.749893 -13.257035 2.2837737
23.789125 -13.250395 2.2738264
23.788532 -13.238528 2.2738264
23.786757 -13.22678 2.2738264
23.783815 -13.215267 2.2738264
23.779741 -13.204105 2.2738264
23.774574 -13.193407 2.2738264
23.768364 -13.183277 2.2738264
23.761173 -13.173819 2.2738264
23.753073 -13.165125 2.2738264
23.744146 -13.157283 2.2738264
23.734482 -13.150372 2.2738264
23.724174 -13.144459 2.2738264
23.713329 -13.139606 2.2738264
23.702055 -13.135859 2.2738264
23.69046 -13.133257 2.2738264
23.678665 -13.131825 2.2738264
23.666786 -13.131577 2.2738264
23.654942 -13.132518 2.2738264
23.643251 -13.134636 2.2738264
23.631828 -13.137911 2.2738264
23.62079 -13.142309 2.2738264
23.610249 -13.147787 2.2738264
23.600304 -13.154291 2.2738264
23.591059 -13.161755 2.2738264
23.582605 -13.170104 2.2738264
23.575027 -13.179255 2.2738264
23.568401 -13.189118 2.2738264
23.562792 -13.199594 2.2738264
23.558258 -13.210575 2.2738264
23.554842 -13.221955 2.2738264
23.55258 -13.23362 2.2738264
23.551493 -13.245452 2.2738264
23.551592 -13.257334 2.2738264
23.552877 -13.269146 2.2738264
23.555336 -13.28077 2.2738264
23.558943 -13.292091 2.2738264
23.563662 -13.302996 2.2738264
23.569447 -13.313375 2.2738264
23.576237 -13.323125 2.2738264
23.583967 -13.332148 2.2738264
23.59256 -13.340354 2.2738264
23.601929 -13.347661 2.2738264
23.61198 -13.353997 2.2738264
23.622616 -13.359297 2.2738264
23.633726 -13.363509 2.2738264
23.645201 -13.366591 2.2738264
23.656925 -13.368512 2.2738264
23.668785 -13.369253 2.2738264
23.680658 -13.368807 2.2738264
23.692427 -13.367177 2.2738264
23.703976 -13.36438 2.2738264
23.715187 -13.360444 2.2738264
23.725948 -13.355409 2.2738264
23.736155 -13.349324 2.2738264
23.745701 -13.342252 2.2738264
23.754496 -13.334261 2.2738264
23.762447 -13.325432 2.2738264
23.769478 -13.315854 2.2738264
23.775517 -13.305621 2.2738264
23.780504 -13.294837 2.2738264
23.784391 -13.283608 2.2738264
23.787136 -13.272048 2.2738264
23.788713 -13.260272 2.2738264
23.826895 -13.250395 2.2600396
23.826111 -13.234757 2.2600396
23.823772 -13.219276 2.2600396
23.819899 -13.204105 2.2600396
23.814529 -13.189398 2.2600396
23.807718 -13.1753 2.2600396
23.799536 -13.161951 2.2600396
23.79006 -13.149487 2.2600396
23.779387 -13.138031 2.2600396
23.767624 -13.127697 2.2600396
23.754889 -13.118589 2.2600396
23.741306 -13.1108 2.2600396
23.727016 -13.104403 2.2600396
23.712158 -13.099466 2.2600396
23.69688 -13.096038 2.2600396
23.681337 -13.094151 2.2600396
23.665684 -13.093825 2.2600396
23.650076 -13.095064 2.2600396
23.63467 -13.097855 2.2600396
23.619619 -13.10217 2.2600396
23.605074 -13.107965 2.2600396
23.591181 -13.115185 2.2600396
23.578077 -13.123755 2.2600396
23.565895 -13.133591 2.2600396
23.554754 -13.144592 2.2600396
23.544769 -13.156652 2.2600396
23.536037 -13.169648 2.2600396
23.528646 -13.183452 2.2600396
23.522671 -13.197924 2.2600396
23.518169 -13.212919 2.2600396
23.515188 -13.228291 2.2600396
23.513756 -13.243881 2.2600396
23.513887 -13.259539 2.2600396
23.515583 -13.275104 2.2600396
23.518822 -13.290421 2.2600396
23.523575 -13.30534 2.2600396
23.529793 -13.31971 2.2600396
23.537415 -13.333386 2.2600396
23.546364 -13.346233 2.2600396
23.556549 -13.358124 2.2600396
23.567873 -13.368937 2.2600396
23.580219 -13.378567 2.2600396
23.593464 -13.386915 2.2600396
23.607477 -13.3939 2.2600396
23.622118 -13.39945 2.2600396
23.637239 -13.403512 2.2600396
23.652691 -13.406043 2.2600396
23.668316 -13.40702 2.2600396
23.683962 -13.40643 2.2600396
23.699472 -13.404283 2.2600396
23.714689 -13.400598 2.2600396
23.729462 -13.395411 2.2600396
23.743645 -13.388776 2.2600396
23.757092 -13.380758 2.2600396
23.769672 -13.371438 2.2600396
23.781261 -13.360909 2.2600396
23.791739 -13.349275 2.2600396
23.801004 -13.336653 2.2600396
23.808962 -13.323169 2.2600396
23.815535 -13.308958 2.2600396
23.820656 -13.294162 2.2600396
23.824272 -13.278929 2.2600396
23.826353 -13.263411 2.2600396
23.863098 -13.250395 2.2425513
23.862135 -13.231143 2.2425513
23.859253 -13.212084 2.2425513
23.854485 -13.193407 2.2425513
23.847876 -13.1753 2.2425513
23.839491 -13.157943 2.2425513
23.829416 -13.141509 2.2425513
23.817749 -13.126163 2.2425513
23.804611 -13.11206 2.2425513
23.790129 -13.099338 2.2425513
23.77445 -13.088125 2.2425513
23.757729 -13.078534 2.2425513
23.740135 -13.070661 2.2425513
23.721842 -13.064582 2.2425513
23.703033 -13.060361 2.2425513
23.683899 -13.058038 2.2425513
23.664627 -13.057637 2.2425513
23.645411 -13.059162 2.2425513
23.626444 -13.062598 2.2425513
23.607914 -13.06791 2.2425513
23.590008 -13.075046 2.2425513
23.572903 -13.083934 2.2425513
23.55677 -13.094484 2.2425513
23.541773 -13.106593 2.2425513
23.528059 -13.120138 2.2425513
23.515764 -13.134985 2.2425513
23.505014 -13.150986 2.2425513
23.495916 -13.167978 2.2425513
23.48856 -13.185796 2.2425513
23.483017 -13.204258 2.2425513
23.479347 -13.223181 2.2425513
23.477585 -13.242376 2.2425513
23.477747 -13.261652 2.2425513
23.479832 -13.280814 2.2425513
23.48382 -13.299673 2.2425513
23.489672 -13.31804 2.2425513
23.497326 -13.335731 2.2425513
23.50671 -13.352569 2.2425513
23.517727 -13.368385 2.2425513
23.530268 -13.383023 2.2425513
23.544209 -13.396337 2.2425513
23.559408 -13.408192 2.2425513
23.575716 -13.418469 2.2425513
23.592968 -13.427069 2.2425513
23.610991 -13.433902 2.2425513
23.629608 -13.438902 2.2425513
23.64863 -13.442019 2.2425513
23.667868 -13.44322 2.2425513
23.68713 -13.442495 2.2425513
23.706224 -13.439851 2.2425513
23.724958 -13.435314 2.2425513
23.743147 -13.428929 2.2425513
23.760607 -13.42076 2.2425513
23.777163 -13.41089 2.2425513
23.792652 -13.399415 2.2425513
23.806917 -13.386452 2.2425513
23.819817 -13.372128 2.2425513
23.831223 -13.356589 2.2425513
23.841021 -13.33999 2.2425513
23.849112 -13.322494 2.2425513
23.855417 -13.304278 2.2425513
23.859871 -13.285523 2.2425513
23.862431 -13.266418 2.2425513
23.897375 -13.250395 2.2215359
23.89624 -13.227721 2.2215359
23.892847 -13.205274 2.2215359
23.88723 -13.183277 2.2215359
23.879446 -13.161951 2.2215359
23.869572 -13.141509 2.2215359
23.857706 -13.122155 2.2215359
23.843966 -13.104082 2.2215359
23.828491 -13.087471 2.2215359
23.811436 -13.072488 2.2215359
23.792969 -13.059282 2.2215359
23.773277 -13.047986 2.2215359
23.752556 -13.038713 2.2215359
23.73101 -13.031554 2.2215359
23.70886 -13.026583 2.2215359
23.686323 -13.023847 2.2215359
23.663626 -13.023375 2.2215359
23.640995 -13.025171 2.2215359
23.618656 -13.029218 2.2215359
23.596832 -13.035474 2.2215359
23.575743 -13.043878 2.2215359
23.555599 -13.054345 2.2215359
23.536598 -13.066772 2.2215359
23.518934 -13.081033 2.2215359
23.502783 -13.096986 2.2215359
23.488304 -13.114471 2.2215359
23.475643 -13.133316 2.2215359
23.464928 -13.15333 2.2215359
23.456263 -13.174314 2.2215359
23.449736 -13.196057 2.2215359
23.445414 -13.218344 2.2215359
23.443336 -13.240951 2.2215359
23.443527 -13.263653 2.2215359
23.445984 -13.286222 2.2215359
23.450682 -13.308433 2.2215359
23.457573 -13.330064 2.2215359
23.466589 -13.350899 2.2215359
23.47764 -13.370729 2.2215359
23.490616 -13.389358 2.2215359
23.505386 -13.406598 2.2215359
23.521803 -13.422277 2.2215359
23.539705 -13.436239 2.2215359
23.55891 -13.448344 2.2215359
23.579229 -13.458471 2.2215359
23.600456 -13.466519 2.2215359
23.622381 -13.472408 2.2215359
23.644785 -13.476079 2.2215359
23.667444 -13.477494 2.2215359
23.69013 -13.476641 2.2215359
23.712618 -13.473527 2.2215359
23.734682 -13.468184 2.2215359
23.756102 -13.460664 2.2215359
23.776665 -13.451043 2.2215359
23.796165 -13.439417 2.2215359
23.814407 -13.425903 2.2215359
23.831207 -13.410636 2.2215359
23.846401 -13.393766 2.2215359
23.859835 -13.375465 2.2215359
23.871374 -13.355914 2.2215359
23.880903 -13.335309 2.2215359
23.888329 -13.313855 2.2215359
23.893574 -13.291768 2.2215359
23.896589 -13.269267 2.2215359
23.929382 -13.250395 2.1972034
23.928087 -13.224525 2.1972034
23.924217 -13.198915 2.1972034
23.917809 -13.173819 2.1972034
23.908928 -13.149487 2.1972034
23.897661 -13.126163 2.1972034
23.884123 -13.104082 2.1972034
23.868446 -13.083462 2.1972034
23.850792 -13.06451 2.1972034
23.831331 -13.047416 2.1972034
23.810263 -13.032349 2.1972034
23.787796 -13.019461 2.1972034
23.764153 -13.008881 2.1972034
23.739573 -13.000713 2.1972034
23.7143 -12.99504 2.1972034
23.688587 -12.99192 2.1972034
23.662691 -12.991381 2.1972034
23.636871 -12.99343 2.1972034
23.611383 -12.998047 2.1972034
23.586485 -13.005185 2.1972034
23.562424 -13.014773 2.1972034
23.53944 -13.026716 2.1972034
23.517763 -13.040894 2.1972034
23.497608 -13.057164 2.1972034
23.479181 -13.075366 2.1972034
23.462662 -13.095316 2.1972034
23.448217 -13.116816 2.1972034
23.435989 -13.13965 2.1972034
23.426104 -13.163591 2.1972034
23.418659 -13.188399 2.1972034
23.413727 -13.213827 2.1972034
23.411358 -13.23962 2.1972034
23.411575 -13.265521 2.1972034
23.414377 -13.29127 2.1972034
23.419737 -13.316611 2.1972034
23.427599 -13.341291 2.1972034
23.437885 -13.365063 2.1972034
23.450493 -13.387689 2.1972034
23.465298 -13.408942 2.1972034
23.482151 -13.428612 2.1972034
23.500881 -13.446501 2.1972034
23.521307 -13.46243 2.1972034
23.543219 -13.476241 2.1972034
23.566401 -13.487796 2.1972034
23.59062 -13.496979 2.1972034
23.615635 -13.503697 2.1972034
23.641195 -13.507885 2.1972034
23.667048 -13.5095 2.1972034
23.69293 -13.508526 2.1972034
23.718588 -13.504972 2.1972034
23.743761 -13.498876 2.1972034
23.7682 -13.490296 2.1972034
23.79166 -13.479321 2.1972034
23.81391 -13.466056 2.1972034
23.834723 -13.450638 2.1972034
23.853891 -13.433218 2.1972034
23.871225 -13.413972 2.1972034
23.886553 -13.393092 2.1972034
23.899717 -13.370786 2.1972034
23.910589 -13.347277 2.1972034
23.919062 -13.322799 2.1972034
23.925047 -13.297599 2.1972034
23.928486 -13.271926 2.1972034
23.958801 -13.250395 2.1697972
23.957359 -13.221588 2.1697972
23.953049 -13.19307 2.1697972
23.945913 -13.165125 2.1697972
23.936024 -13.138031 2.1697972
23.923479 -13.11206 2.1697972
23.908403 -13.087471 2.1697972
23.890947 -13.06451 2.1697972
23.871288 -13.043406 2.1697972
23.849619 -13.024371 2.1697972
23.826159 -13.007594 2.1697972
23.80114 -12.993243 2.1697972
23.774813 -12.981462 2.1697972
23.747442 -12.972366 2.1697972
23.719301 -12.96605 2.1697972
23.690668 -12.962574 2.1697972
23.661833 -12.961974 2.1697972
23.63308 -12.964256 2.1697972
23.6047 -12.969398 2.1697972
23.576975 -12.977346 2.1697972
23.55018 -12.988023 2.1697972
23.524588 -13.001322 2.1697972
23.50045 -13.017109 2.1697972
23.478008 -13.035227 2.1697972
23.457487 -13.055494 2.1697972
23.439093 -13.077709 2.1697972
23.423008 -13.10165 2.1697972
23.409393 -13.127077 2.1697972
23.398386 -13.153736 2.1697972
23.390095 -13.181361 2.1697972
23.384602 -13.209676 2.1697972
23.381964 -13.238397 2.1697972
23.382206 -13.267238 2.1697972
23.385326 -13.295911 2.1697972
23.391294 -13.324129 2.1697972
23.400049 -13.351611 2.1697972
23.411503 -13.37808 2.1697972
23.425543 -13.403275 2.1697972
23.442028 -13.426942 2.1697972
23.460794 -13.448845 2.1697972
23.481653 -13.468765 2.1697972
23.504396 -13.486503 2.1697972
23.528795 -13.501882 2.1697972
23.554609 -13.514749 2.1697972
23.581577 -13.524973 2.1697972
23.609434 -13.532454 2.1697972
23.637896 -13.537118 2.1697972
23.666683 -13.538916 2.1697972
23.695503 -13.537831 2.1697972
23.724073 -13.533875 2.1697972
23.752106 -13.527086 2.1697972
23.77932 -13.517532 2.1697972
23.805445 -13.50531 2.1697972
23.830217 -13.490541 2.1697972
23.853394 -13.473372 2.1697972
23.874739 -13.453975 2.1697972
23.894041 -13.432543 2.1697972
23.911108 -13.409292 2.1697972
23.925768 -13.384454 2.1697972
23.937876 -13.358275 2.1697972
23.947308 -13.331019 2.1697972
23.953974 -13.302958 2.1697972
23.957804 -13.274371 2.1697972
23.985336 -13.250395 2.139591
23.983763 -13.21894 2.139591
23.979055 -13.187799 2.139591
23.971264 -13.157283 2.139591
23.960464 -13.127697 2.139591
23.946766 -13.099338 2.139591
23.930304 -13.072488 2.139591
23.911243 -13.047416 2.139591
23.889774 -13.024371 2.139591
23.866114 -13.003585 2.139591
23.840496 -12.985265 2.139591
23.813175 -12.969594 2.139591
23.78443 -12.956729 2.139591
23.754541 -12.946798 2.139591
23.72381 -12.9399 2.139591
23.692545 -12.936105 2.139591
23.661057 -12.935451 2.139591
23.629662 -12.937943 2.139591
23.598671 -12.943556 2.139591
23.568396 -12.952235 2.139591
23.539139 -12.963895 2.139591
23.51119 -12.978415 2.139591
23.484833 -12.995655 2.139591
23.460327 -13.015439 2.139591
23.43792 -13.037571 2.139591
23.417833 -13.061829 2.139591
23.40027 -13.087971 2.139591
23.385403 -13.115736 2.139591
23.373383 -13.144847 2.139591
23.364328 -13.175013 2.139591
23.358332 -13.205931 2.139591
23.355452 -13.237293 2.139591
23.355717 -13.268787 2.139591
23.359123 -13.300097 2.139591
23.365641 -13.33091 2.139591
23.3752 -13.360919 2.139591
23.387707 -13.389823 2.139591
23.403038 -13.417335 2.139591
23.42104 -13.443178 2.139591
23.441532 -13.467095 2.139591
23.464308 -13.488847 2.139591
23.489141 -13.508217 2.139591
23.515787 -13.52501 2.139591
23.543974 -13.539059 2.139591
23.573423 -13.550224 2.139591
23.60384 -13.558393 2.139591
23.63492 -13.563486 2.139591
23.666353 -13.56545 2.139591
23.697826 -13.564265 2.139591
23.729023 -13.559945 2.139591
23.759632 -13.552532 2.139591
23.789351 -13.5421 2.139591
23.817877 -13.528753 2.139591
23.844929 -13.512625 2.139591
23.870235 -13.493877 2.139591
23.893543 -13.472696 2.139591
23.914621 -13.449294 2.139591
23.933258 -13.423905 2.139591
23.949266 -13.396782 2.139591
23.962486 -13.368196 2.139591
23.972786 -13.338434 2.139591
23.980064 -13.307792 2.139591
23.984247 -13.276576 2.139591
24.008724 -13.250395 2.1068864
24.007032 -13.216604 2.1068864
24.001978 -13.183152 2.1068864
23.993607 -13.150372 2.1068864
23.982006 -13.118589 2.1068864
23.967289 -13.088125 2.1068864
23.949606 -13.059282 2.1068864
23.929131 -13.032349 2.1068864
23.906069 -13.007594 2.1068864
23.880651 -12.985265 2.1068864
23.853132 -12.965585 2.1068864
23.823784 -12.948751 2.1068864
23.792904 -12.934931 2.1068864
23.760798 -12.924263 2.1068864
23.727785 -12.916853 2.1068864
23.694201 -12.912776 2.1068864
23.660374 -12.912073 2.1068864
23.626648 -12.91475 2.1068864
23.593357 -12.92078 2.1068864
23.560835 -12.930104 2.1068864
23.529406 -12.942628 2.1068864
23.499384 -12.958227 2.1068864
23.471069 -12.976746 2.1068864
23.444746 -12.997999 2.1068864
23.420675 -13.021773 2.1068864
23.399097 -13.047832 2.1068864
23.38023 -13.075914 2.1068864
23.36426 -13.105741 2.1068864
23.351347 -13.137012 2.1068864
23.341621 -13.169416 2.1068864
23.335178 -13.20263 2.1068864
23.332085 -13.23632 2.1068864
23.332369 -13.270152 2.1068864
23.336029 -13.303786 2.1068864
23.343029 -13.336886 2.1068864
23.353298 -13.369123 2.1068864
23.366735 -13.400172 2.1068864
23.383204 -13.429726 2.1068864
23.402542 -13.457488 2.1068864
23.424553 -13.48318 2.1068864
23.44902 -13.506547 2.1068864
23.475698 -13.527353 2.1068864
23.50432 -13.545394 2.1068864
23.534599 -13.560486 2.1068864
23.566235 -13.57248 2.1068864
23.598909 -13.581256 2.1068864
23.632298 -13.586725 2.1068864
23.666063 -13.588835 2.1068864
23.699873 -13.587563 2.1068864
23.733385 -13.582922 2.1068864
23.766268 -13.574959 2.1068864
23.798189 -13.563752 2.1068864
23.828835 -13.549415 2.1068864
23.857893 -13.53209 2.1068864
23.885078 -13.51195 2.1068864
23.910118 -13.489197 2.1068864
23.93276 -13.464058 2.1068864
23.95278 -13.436784 2.1068864
23.969976 -13.407648 2.1068864
23.984177 -13.376941 2.1068864
23.995243 -13.344969 2.1068864
24.003061 -13.312052 2.1068864
24.007553 -13.278519 2.1068864
24.028728 -13.250395 2.0720105
24.026939 -13.214607 2.0720105
24.021584 -13.179177 2.0720105
24.012718 -13.144459 2.0720105
24.000431 -13.1108 2.0720105
23.984846 -13.078534 2.0720105
23.966118 -13.047986 2.0720105
23.944431 -13.019461 2.0720105
23.920008 -12.993243 2.0720105
23.893087 -12.969594 2.0720105
23.863941 -12.948751 2.0720105
23.832859 -12.930923 2.0720105
23.800152 -12.916285 2.0720105
23.766148 -12.904986 2.0720105
23.731186 -12.897139 2.0720105
23.695614 -12.892821 2.0720105
23.65979 -12.892076 2.0720105
23.624071 -12.894911 2.0720105
23.588812 -12.901298 2.0720105
23.554367 -12.911173 2.0720105
23.52108 -12.924438 2.0720105
23.489285 -12.940959 2.0720105
23.459297 -12.960571 2.0720105
23.431416 -12.983081 2.0720105
23.405922 -13.008261 2.0720105
23.38307 -13.035859 2.0720105
23.363087 -13.065602 2.0720105
23.346172 -13.097191 2.0720105
23.332497 -13.130311 2.0720105
23.322197 -13.164631 2.0720105
23.315372 -13.199807 2.0720105
23.312096 -13.235489 2.0720105
23.312397 -13.27132 2.0720105
23.316275 -13.306942 2.0720105
23.323687 -13.341999 2.0720105
23.334564 -13.376141 2.0720105
23.348795 -13.409025 2.0720105
23.366238 -13.440326 2.0720105
23.386717 -13.469728 2.0720105
23.41003 -13.49694 2.0720105
23.435944 -13.521687 2.0720105
23.464199 -13.543724 2.0720105
23.494513 -13.56283 2.0720105
23.526583 -13.578815 2.0720105
23.560087 -13.591517 2.0720105
23.594692 -13.600812 2.0720105
23.630053 -13.606605 2.0720105
23.665815 -13.608839 2.0720105
23.701622 -13.607491 2.0720105
23.737116 -13.602576 2.0720105
23.771942 -13.594142 2.0720105
23.805752 -13.582273 2.0720105
23.838207 -13.567089 2.0720105
23.868984 -13.548739 2.0720105
23.897776 -13.52741 2.0720105
23.924295 -13.503312 2.0720105
23.948275 -13.476686 2.0720105
23.969479 -13.447801 2.0720105
23.98769 -13.416943 2.0720105
24.002731 -13.38442 2.0720105
24.014452 -13.350558 2.0720105
24.022732 -13.315696 2.0720105
24.027491 -13.280181 2.0720105
24.045153 -13.250395 2.0353115
24.04328 -13.212968 2.0353115
24.03768 -13.175915 2.0353115
24.02841 -13.139606 2.0353115
24.01556 -13.104403 2.0353115
23.99926 -13.070661 2.0353115
23.979671 -13.038713 2.0353115
23.956993 -13.008881 2.0353115
23.93145 -12.981462 2.0353115
23.903296 -12.956729 2.0353115
23.872814 -12.934931 2.0353115
23.840309 -12.916285 2.0353115
23.806105 -12.900977 2.0353115
23.770542 -12.889161 2.0353115
23.733978 -12.880954 2.0353115
23.696777 -12.876438 2.0353115
23.659311 -12.875659 2.0353115
23.621954 -12.878624 2.0353115
23.585081 -12.885303 2.0353115
23.549057 -12.895631 2.0353115
23.514246 -12.909503 2.0353115
23.480993 -12.926782 2.0353115
23.449631 -12.947293 2.0353115
23.420473 -12.970833 2.0353115
23.393812 -12.997167 2.0353115
23.369913 -13.026031 2.0353115
23.349014 -13.057136 2.0353115
23.331326 -13.090172 2.0353115
23.317022 -13.124809 2.0353115
23.30625 -13.160701 2.0353115
23.299114 -13.19749 2.0353115
23.295687 -13.234806 2.0353115
23.296001 -13.272279 2.0353115
23.300056 -13.309532 2.0353115
23.30781 -13.346195 2.0353115
23.319183 -13.381902 2.0353115
23.334066 -13.416293 2.0353115
23.352308 -13.449028 2.0353115
23.373728 -13.479777 2.0353115
23.398108 -13.508235 2.0353115
23.425209 -13.534117 2.0353115
23.454758 -13.557163 2.0353115
23.48646 -13.577145 2.0353115
23.519999 -13.593862 2.0353115
23.555038 -13.607146 2.0353115
23.59123 -13.616866 2.0353115
23.628212 -13.622925 2.0353115
23.665613 -13.625261 2.0353115
23.70306 -13.623853 2.0353115
23.740179 -13.618712 2.0353115
23.7766 -13.609892 2.0353115
23.811958 -13.597479 2.0353115
23.845901 -13.581598 2.0353115
23.87809 -13.562408 2.0353115
23.908201 -13.540102 2.0353115
23.935934 -13.514899 2.0353115
23.961014 -13.487055 2.0353115
23.983187 -13.456845 2.0353115
24.002235 -13.424573 2.0353115
24.017965 -13.390561 2.0353115
24.03022 -13.355147 2.0353115
24.038881 -13.318688 2.0353115
24.043858 -13.281546 2.0353115
24.057831 -13.250395 1.9971561
24.055895 -13.211702 1.9971561
24.050106 -13.173396 1.9971561
24.040522 -13.135859 1.9971561
24.027237 -13.099466 1.9971561
24.010386 -13.064582 1.9971561
23.990135 -13.031554 1.9971561
23.96669 -13.000713 1.9971561
23.940283 -12.972366 1.9971561
23.911177 -12.946798 1.9971561
23.879665 -12.924263 1.9971561
23.84606 -12.904986 1.9971561
23.810698 -12.889161 1.9971561
23.773933 -12.876945 1.9971561
23.736132 -12.868461 1.9971561
23.697674 -12.863792 1.9971561
23.658941 -12.862987 1.9971561
23.620321 -12.866052 1.9971561
23.582199 -12.872957 1.9971561
23.544958 -12.883634 1.9971561
23.50897 -12.897975 1.9971561
23.474592 -12.915837 1.9971561
23.442169 -12.937043 1.9971561
23.412027 -12.961379 1.9971561
23.384462 -12.988603 1.9971561
23.359755 -13.018443 1.9971561
23.33815 -13.0506 1.9971561
23.319862 -13.084753 1.9971561
23.305077 -13.120562 1.9971561
23.29394 -13.157668 1.9971561
23.286562 -13.1957 1.9971561
23.28302 -13.234279 1.9971561
23.283344 -13.273019 1.9971561
23.287537 -13.311533 1.9971561
23.295551 -13.349436 1.9971561
23.307312 -13.386349 1.9971561
23.322697 -13.421904 1.9971561
23.341557 -13.455745 1.9971561
23.363699 -13.487535 1.9971561
23.388905 -13.516954 1.9971561
23.416922 -13.543711 1.9971561
23.44747 -13.567537 1.9971561
23.480246 -13.588194 1.9971561
23.514917 -13.605476 1.9971561
23.551144 -13.61921 1.9971561
23.588558 -13.629259 1.9971561
23.626789 -13.635523 1.9971561
23.665455 -13.637938 1.9971561
23.704168 -13.636482 1.9971561
23.742544 -13.631167 1.9971561
23.780197 -13.622049 1.9971561
23.816751 -13.609217 1.9971561
23.851841 -13.592799 1.9971561
23.885118 -13.57296 1.9971561
23.916246 -13.549898 1.9971561
23.944918 -13.523845 1.9971561
23.970846 -13.495058 1.9971561
23.993769 -13.463827 1.9971561
24.01346 -13.430464 1.9971561
24.029724 -13.395301 1.9971561
24.042395 -13.35869 1.9971561
24.051346 -13.320997 1.9971561
24.056492 -13.282599 1.9971561
24.066637 -13.250395 1.9579258
24.064657 -13.210823 1.9579258
24.058735 -13.171646 1.9579258
24.048933 -13.133257 1.9579258
24.035347 -13.096038 1.9579258
24.018112 -13.060361 1.9579258
23.997404 -13.026583 1.9579258
23.973425 -12.99504 1.9579258
23.946417 -12.96605 1.9579258
23.916651 -12.9399 1.9579258
23.884422 -12.916853 1.9579258
23.850054 -12.897139 1.9579258
23.813889 -12.880954 1.9579258
23.776289 -12.868461 1.9579258
23.737629 -12.859783 1.9579258
23.698296 -12.855009 1.9579258
23.658684 -12.854185 1.9579258
23.619186 -12.85732 1.9579258
23.5802 -12.864382 1.9579258
23.542112 -12.875301 1.9579258
23.505306 -12.889968 1.9579258
23.470146 -12.908237 1.9579258
23.436989 -12.929924 1.9579258
23.40616 -12.954813 1.9579258
23.37797 -12.982656 1.9579258
23.352701 -13.013173 1.9579258
23.330605 -13.046061 1.9579258
23.311903 -13.08099 1.9579258
23.29678 -13.117612 1.9579258
23.285391 -13.155561 1.9579258
23.277845 -13.194457 1.9579258
23.274221 -13.233912 1.9579258
23.274555 -13.273533 1.9579258
23.278841 -13.312922 1.9579258
23.287039 -13.351686 1.9579258
23.299065 -13.389438 1.9579258
23.3148 -13.4258 1.9579258
23.334087 -13.46041 1.9579258
23.356733 -13.492922 1.9579258
23.382513 -13.52301 1.9579258
23.411167 -13.550375 1.9579258
23.44241 -13.574742 1.9579258
23.475927 -13.595869 1.9579258
23.511389 -13.613544 1.9579258
23.548437 -13.62759 1.9579258
23.586702 -13.637867 1.9579258
23.625801 -13.644273 1.9579258
23.665346 -13.646744 1.9579258
23.704939 -13.645254 1.9579258
23.744186 -13.639819 1.9579258
23.782694 -13.630492 1.9579258
23.82008 -13.617369 1.9579258
23.855967 -13.600578 1.9579258
23.889999 -13.580289 1.9579258
23.921835 -13.556704 1.9579258
23.951159 -13.530057 1.9579258
23.977674 -13.500617 1.9579258
24.00112 -13.468676 1.9579258
24.021259 -13.434554 1.9579258
24.037889 -13.398593 1.9579258
24.050848 -13.361151 1.9579258
24.060005 -13.322601 1.9579258
24.065266 -13.283331 1.9579258
24.071482 -13.250395 1.9180124
24.069477 -13.21034 1.9180124
24.063484 -13.170684 1.9180124
24.053562 -13.131825 1.9180124
24.03981 -13.094151 1.9180124
24.022366 -13.058038 1.9180124
24.001402 -13.023847 1.9180124
23.977131 -12.99192 1.9180124
23.949793 -12.962574 1.9180124
23.919662 -12.936105 1.9180124
23.887039 -12.912776 1.9180124
23.852251 -12.892821 1.9180124
23.815643 -12.876438 1.9180124
23.777584 -12.863792 1.9180124
23.738453 -12.855009 1.9180124
23.698639 -12.850176 1.9180124
23.658543 -12.849341 1.9180124
23.618563 -12.852515 1.9180124
23.579098 -12.859664 1.9180124
23.540546 -12.870716 1.9180124
23.50329 -12.885563 1.9180124
23.467701 -12.904055 1.9180124
23.434137 -12.926006 1.9180124
23.402931 -12.9512 1.9180124
23.374397 -12.979383 1.9180124
23.34882 -13.010273 1.9180124
23.326454 -13.043563 1.9180124
23.307522 -13.078919 1.9180124
23.292215 -13.11599 1.9180124
23.280685 -13.154402 1.9180124
23.273048 -13.193774 1.9180124
23.269381 -13.233711 1.9180124
23.269718 -13.273815 1.9180124
23.274057 -13.313685 1.9180124
23.282354 -13.352923 1.9180124
23.294529 -13.391137 1.9180124
23.310455 -13.427944 1.9180124
23.329979 -13.462977 1.9180124
23.352901 -13.495887 1.9180124
23.378996 -13.526342 1.9180124
23.407999 -13.554042 1.9180124
23.439625 -13.578707 1.9180124
23.473553 -13.600092 1.9180124
23.509447 -13.617982 1.9180124
23.546947 -13.6322 1.9180124
23.58568 -13.642603 1.9180124
23.625259 -13.649088 1.9180124
23.665287 -13.651588 1.9180124
23.705364 -13.65008 1.9180124
23.74509 -13.644579 1.9180124
23.784069 -13.635139 1.9180124
23.821911 -13.621855 1.9180124
23.858236 -13.604858 1.9180124
23.892685 -13.584321 1.9180124
23.924911 -13.560448 1.9180124
23.954592 -13.533476 1.9180124
23.981432 -13.503675 1.9180124
24.005163 -13.471344 1.9180124
24.025549 -13.436806 1.9180124
24.042383 -13.400404 1.9180124
24.0555 -13.362504 1.9180124
24.064768 -13.323484 1.9180124
24.070095 -13.283733 1.9180124
24.072317 -13.250395 1.8778147
24.070309 -13.210256 1.8778147
24.064302 -13.170518 1.8778147
24.054359 -13.131577 1.8778147
24.040579 -13.093825 1.8778147
24.023098 -13.057637 1.8778147
24.002092 -13.023375 1.8778147
23.97777 -12.991381 1.8778147
23.950375 -12.961974 1.8778147
23.920181 -12.935451 1.8778147
23.887491 -12.912073 1.8778147
23.852631 -12.892076 1.8778147
23.815947 -12.875659 1.8778147
23.777807 -12.862987 1.8778147
23.738594 -12.854185 1.8778147
23.698698 -12.849341 1.8778147
23.658518 -12.848506 1.8778147
23.618454 -12.851686 1.8778147
23.578909 -12.85885 1.8778147
23.540276 -12.869925 1.8778147
23.502941 -12.884803 1.8778147
23.467279 -12.903333 1.8778147
23.433645 -12.925331 1.8778147
23.402374 -12.950577 1.8778147
23.373781 -12.978818 1.8778147
23.34815 -13.009773 1.8778147
23.325737 -13.043132 1.8778147
23.306767 -13.078562 1.8778147
23.291428 -13.115709 1.8778147
23.279875 -13.154202 1.8778147
23.272221 -13.193656 1.8778147
23.268545 -13.233677 1.8778147
23.268883 -13.273865 1.8778147
23.273232 -13.313818 1.8778147
23.281546 -13.353137 1.8778147
23.293745 -13.39143 1.8778147
23.309706 -13.428314 1.8778147
23.329269 -13.46342 1.8778147
23.352242 -13.496398 1.8778147
23.378389 -13.526917 1.8778147
23.407454 -13.554674 1.8778147
23.439144 -13.579391 1.8778147
23.473143 -13.600821 1.8778147
23.509111 -13.618749 1.8778147
23.54669 -13.632996 1.8778147
23.585505 -13.64342 1.8778147
23.625164 -13.649919 1.8778147
23.665276 -13.652424 1.8778147
23.705437 -13.650913 1.8778147
23.745245 -13.6454 1.8778147
23.784306 -13.635941 1.8778147
23.822226 -13.622628 1.8778147
23.858629 -13.605597 1.8778147
23.893148 -13.585017 1.8778147
23.925442 -13.561093 1.8778147
23.955185 -13.534065 1.8778147
23.98208 -13.504203 1.8778147
24.005861 -13.471805 1.8778147
24.026289 -13.437194 1.8778147
24.043159 -13.400717 1.8778147
24.056303 -13.362738 1.8778147
24.06559 -13.323636 1.8778147
24.070927 -13.283803 1.8778147
24.069136 -13.250395 1.8377343
24.067144 -13.210573 1.8377343
24.061186 -13.17115 1.8377343
24.051321 -13.132518 1.8377343
24.037649 -13.095064 1.8377343
24.020308 -13.059162 1.8377343
23.999466 -13.025171 1.8377343
23.975336 -12.99343 1.8377343
23.948158 -12.964256 1.8377343
23.918205 -12.937943 1.8377343
23.885773 -12.91475 1.8377343
23.851187 -12.894911 1.8377343
23.814795 -12.878624 1.8377343
23.776957 -12.866052 1.8377343
23.738054 -12.85732 1.8377343
23.698473 -12.852515 1.8377343
23.658611 -12.851686 1.8377343
23.618864 -12.85484 1.8377343
23.579632 -12.861947 1.8377343
23.541304 -12.872935 1.8377343
23.504265 -12.887695 1.8377343
23.468885 -12.906078 1.8377343
23.435516 -12.927902 1.8377343
23.404493 -12.952949 1.8377343
23.376127 -12.980967 1.8377343
23.350698 -13.011677 1.8377343
23.328463 -13.044772 1.8377343
23.309643 -13.079922 1.8377343
23.294424 -13.116775 1.8377343
23.282963 -13.154963 1.8377343
23.27537 -13.194105 1.8377343
23.271723 -13.233809 1.8377343
23.272058 -13.273679 1.8377343
23.276373 -13.313316 1.8377343
23.284622 -13.352324 1.8377343
23.296724 -13.390314 1.8377343
23.312559 -13.426907 1.8377343
23.331968 -13.461735 1.8377343
23.354757 -13.494452 1.8377343
23.380697 -13.52473 1.8377343
23.409533 -13.552267 1.8377343
23.440971 -13.576788 1.8377343
23.474703 -13.598048 1.8377343
23.510387 -13.615834 1.8377343
23.547668 -13.629969 1.8377343
23.586174 -13.640311 1.8377343
23.625521 -13.646757 1.8377343
23.665316 -13.649243 1.8377343
23.705158 -13.647744 1.8377343
23.744652 -13.642275 1.8377343
23.783403 -13.63289 1.8377343
23.821024 -13.619683 1.8377343
23.857138 -13.602787 1.8377343
23.891384 -13.58237 1.8377343
23.923422 -13.558635 1.8377343
23.95293 -13.531821 1.8377343
23.979614 -13.502194 1.8377343
24.003206 -13.470053 1.8377343
24.023472 -13.435716 1.8377343
24.040209 -13.399528 1.8377343
24.053249 -13.361849 1.8377343
24.062462 -13.323057 1.8377343
24.067757 -13.283539 1.8377343
24.06197 -13.250395 1.7981718
24.060013 -13.211288 1.7981718
24.054161 -13.172574 1.7981718
24.044476 -13.134636 1.7981718
24.031048 -13.097855 1.7981718
24.014017 -13.062598 1.7981718
23.993551 -13.029218 1.7981718
23.969856 -12.998047 1.7981718
23.943167 -12.969398 1.7981718
23.91375 -12.943556 1.7981718
23.881901 -12.92078 1.7981718
23.847937 -12.901298 1.7981718
23.812197 -12.885303 1.7981718
23.77504 -12.872957 1.7981718
23.736835 -12.864382 1.7981718
23.697966 -12.859664 1.7981718
23.658819 -12.85885 1.7981718
23.619787 -12.861947 1.7981718
23.581259 -12.868927 1.7981718
23.543621 -12.879718 1.7981718
23.507248 -12.894212 1.7981718
23.472504 -12.912265 1.7981718
23.439734 -12.933697 1.7981718
23.409269 -12.958293 1.7981718
23.381411 -12.985807 1.7981718
23.35644 -13.015965 1.7981718
23.334604 -13.048467 1.7981718
23.316122 -13.082985 1.7981718
23.301178 -13.119176 1.7981718
23.289921 -13.156677 1.7981718
23.282465 -13.195116 1.7981718
23.278885 -13.234107 1.7981718
23.279213 -13.27326 1.7981718
23.283449 -13.312185 1.7981718
23.291552 -13.350493 1.7981718
23.303436 -13.3878 1.7981718
23.318987 -13.423735 1.7981718
23.338045 -13.457937 1.7981718
23.360426 -13.490067 1.7981718
23.3859 -13.519801 1.7981718
23.414217 -13.546844 1.7981718
23.445091 -13.570924 1.7981718
23.478216 -13.591802 1.7981718
23.51326 -13.609268 1.7981718
23.549871 -13.623149 1.7981718
23.587685 -13.633306 1.7981718
23.626326 -13.639636 1.7981718
23.665403 -13.642077 1.7981718
23.704531 -13.640605 1.7981718
23.743317 -13.635234 1.7981718
23.78137 -13.626018 1.7981718
23.818316 -13.613049 1.7981718
23.853781 -13.596456 1.7981718
23.887411 -13.576405 1.7981718
23.918873 -13.553097 1.7981718
23.947851 -13.526765 1.7981718
23.974056 -13.497671 1.7981718
23.997225 -13.466106 1.7981718
24.017126 -13.432386 1.7981718
24.033562 -13.396848 1.7981718
24.046368 -13.359846 1.7981718
24.055416 -13.321752 1.7981718
24.060616 -13.282944 1.7981718
24.05089 -13.250395 1.7595223
24.048988 -13.212395 1.7595223
24.043303 -13.174775 1.7595223
24.03389 -13.137911 1.7595223
24.020844 -13.10217 1.7595223
24.004293 -13.06791 1.7595223
23.984407 -13.035474 1.7595223
23.96138 -13.005185 1.7595223
23.935446 -12.977346 1.7595223
23.906862 -12.952235 1.7595223
23.875914 -12.930104 1.7595223
23.842911 -12.911173 1.7595223
23.808182 -12.895631 1.7595223
23.772076 -12.883634 1.7595223
23.734953 -12.875301 1.7595223
23.697182 -12.870716 1.7595223
23.659143 -12.869925 1.7595223
23.621216 -12.872935 1.7595223
23.583776 -12.879718 1.7595223
23.547203 -12.890203 1.7595223
23.511858 -12.904287 1.7595223
23.478098 -12.92183 1.7595223
23.446255 -12.942656 1.7595223
23.416653 -12.966556 1.7595223
23.389582 -12.993292 1.7595223
23.365316 -13.022597 1.7595223
23.344099 -13.054178 1.7595223
23.326139 -13.08772 1.7595223
23.311619 -13.122888 1.7595223
23.30068 -13.159328 1.7595223
23.293434 -13.19668 1.7595223
23.289955 -13.234568 1.7595223
23.290276 -13.272614 1.7595223
23.294392 -13.310437 1.7595223
23.302263 -13.347661 1.7595223
23.313812 -13.383914 1.7595223
23.328922 -13.418832 1.7595223
23.347443 -13.452066 1.7595223
23.36919 -13.483287 1.7595223
23.393944 -13.51218 1.7595223
23.421459 -13.538458 1.7595223
23.45146 -13.561857 1.7595223
23.483648 -13.582144 1.7595223
23.5177 -13.599116 1.7595223
23.553276 -13.612604 1.7595223
23.590021 -13.622474 1.7595223
23.627567 -13.628625 1.7595223
23.665541 -13.630998 1.7595223
23.703562 -13.629567 1.7595223
23.741249 -13.624348 1.7595223
23.778227 -13.615392 1.7595223
23.814127 -13.60279 1.7595223
23.848589 -13.586666 1.7595223
23.881269 -13.567183 1.7595223
23.91184 -13.544535 1.7595223
23.939999 -13.518947 1.7595223
23.965462 -13.490676 1.7595223
23.987976 -13.460004 1.7595223
24.007315 -13.427238 1.7595223
24.023285 -13.392705 1.7595223
24.035728 -13.35675 1.7595223
24.044521 -13.319733 1.7595223
24.049574 -13.282022 1.7595223
24.036005 -13.250395 1.7221723
24.034178 -13.213881 1.7221723
24.028715 -13.177732 1.7221723
24.01967 -13.142309 1.7221723
24.007133 -13.107965 1.7221723
23.991232 -13.075046 1.7221723
23.972122 -13.043878 1.7221723
23.949997 -13.014773 1.7221723
23.925077 -12.988023 1.7221723
23.89761 -12.963895 1.7221723
23.867872 -12.942628 1.7221723
23.836159 -12.924438 1.7221723
23.80279 -12.909503 1.7221723
23.768095 -12.897975 1.7221723
23.732422 -12.889968 1.7221723
23.696129 -12.885563 1.7221723
23.659578 -12.884803 1.7221723
23.623133 -12.887695 1.7221723
23.587158 -12.894212 1.7221723
23.552015 -12.904287 1.7221723
23.518053 -12.917821 1.7221723
23.485611 -12.934677 1.7221723
23.455015 -12.954689 1.7221723
23.426569 -12.977654 1.7221723
23.400557 -13.003345 1.7221723
23.377241 -13.031505 1.7221723
23.356852 -13.061851 1.7221723
23.339596 -13.094081 1.7221723
23.325642 -13.127873 1.7221723
23.315132 -13.162889 1.7221723
23.30817 -13.19878 1.7221723
23.304825 -13.235187 1.7221723
23.305134 -13.271745 1.7221723
23.309088 -13.308089 1.7221723
23.316652 -13.343858 1.7221723
23.327749 -13.378693 1.7221723
23.34227 -13.412246 1.7221723
23.360065 -13.444181 1.7221723
23.380962 -13.47418 1.7221723
23.404749 -13.501944 1.7221723
23.431189 -13.527194 1.7221723
23.460016 -13.549678 1.7221723
23.490946 -13.569172 1.7221723
23.523666 -13.585481 1.7221723
23.55785 -13.598441 1.7221723
23.593159 -13.607924 1.7221723
23.629238 -13.613835 1.7221723
23.665726 -13.616115 1.7221723
23.702259 -13.61474 1.7221723
23.738474 -13.609725 1.7221723
23.774006 -13.60112 1.7221723
23.808502 -13.58901 1.7221723
23.841616 -13.573517 1.7221723
23.873018 -13.554795 1.7221723
23.902395 -13.533032 1.7221723
23.929451 -13.508446 1.7221723
23.953918 -13.48128 1.7221723
23.975552 -13.451808 1.7221723
23.994135 -13.420323 1.7221723
24.009481 -13.38714 1.7221723
24.021439 -13.352592 1.7221723
24.029886 -13.317021 1.7221723
24.03474 -13.280786 1.7221723
24.017467 -13.250395 1.6864946
24.015734 -13.215732 1.6864946
24.010546 -13.181415 1.6864946
24.001961 -13.147787 1.6864946
23.990059 -13.115185 1.6864946
23.974962 -13.083934 1.6864946
23.956823 -13.054345 1.6864946
23.935818 -13.026716 1.6864946
23.912161 -13.001322 1.6864946
23.886087 -12.978415 1.6864946
23.857857 -12.958227 1.6864946
23.827751 -12.940959 1.6864946
23.796072 -12.926782 1.6864946
23.763136 -12.915837 1.6864946
23.729271 -12.908237 1.6864946
23.694818 -12.904055 1.6864946
23.66012 -12.903333 1.6864946
23.625521 -12.906078 1.6864946
23.591372 -12.912265 1.6864946
23.558008 -12.92183 1.6864946
23.525766 -12.934677 1.6864946
23.49497 -12.95068 1.6864946
23.465923 -12.969677 1.6864946
23.438919 -12.991478 1.6864946
23.414227 -13.015867 1.6864946
23.392092 -13.042599 1.6864946
23.372738 -13.071407 1.6864946
23.356354 -13.102004 1.6864946
23.343109 -13.134084 1.6864946
23.333132 -13.167325 1.6864946
23.326523 -13.201396 1.6864946
23.323347 -13.235957 1.6864946
23.323639 -13.270662 1.6864946
23.327394 -13.305165 1.6864946
23.334576 -13.339121 1.6864946
23.34511 -13.37219 1.6864946
23.358894 -13.404042 1.6864946
23.375788 -13.434359 1.6864946
23.395626 -13.462837 1.6864946
23.418205 -13.489194 1.6864946
23.443306 -13.513164 1.6864946
23.470673 -13.534509 1.6864946
23.500034 -13.553015 1.6864946
23.531096 -13.568497 1.6864946
23.563547 -13.5808 1.6864946
23.597067 -13.589803 1.6864946
23.631317 -13.595414 1.6864946
23.665955 -13.597578 1.6864946
23.700638 -13.596273 1.6864946
23.735016 -13.591513 1.6864946
23.768747 -13.583344 1.6864946
23.801495 -13.571847 1.6864946
23.83293 -13.557139 1.6864946
23.862741 -13.539367 1.6864946
23.890629 -13.518707 1.6864946
23.916315 -13.495366 1.6864946
23.939541 -13.469578 1.6864946
23.960077 -13.441599 1.6864946
23.977718 -13.411711 1.6864946
23.992287 -13.38021 1.6864946
24.003637 -13.347412 1.6864946
24.011658 -13.313644 1.6864946
24.016268 -13.279245 1.6864946
23.995461 -13.250395 1.652846
23.993835 -13.217929 1.652846
23.988977 -13.185787 1.652846
23.980936 -13.154291 1.652846
23.96979 -13.123755 1.652846
23.95565 -13.094484 1.652846
23.93866 -13.066772 1.652846
23.918987 -13.040894 1.652846
23.896828 -13.017109 1.652846
23.872406 -12.995655 1.652846
23.845964 -12.976746 1.652846
23.817768 -12.960571 1.652846
23.788097 -12.947293 1.652846
23.757248 -12.937043 1.652846
23.725531 -12.929924 1.652846
23.693262 -12.926006 1.652846
23.660761 -12.925331 1.652846
23.628357 -12.927902 1.652846
23.596371 -12.933697 1.652846
23.565123 -12.942656 1.652846
23.534925 -12.954689 1.652846
23.506081 -12.969677 1.652846
23.478876 -12.98747 1.652846
23.453583 -13.00789 1.652846
23.430454 -13.030732 1.652846
23.409723 -13.05577 1.652846
23.391596 -13.082752 1.652846
23.376251 -13.111409 1.652846
23.363844 -13.141456 1.652846
23.3545 -13.17259 1.652846
23.348309 -13.204502 1.652846
23.345337 -13.236873 1.652846
23.34561 -13.269378 1.652846
23.349127 -13.301694 1.652846
23.355852 -13.333497 1.652846
23.365719 -13.36447 1.652846
23.37863 -13.394303 1.652846
23.394453 -13.422699 1.652846
23.413033 -13.449372 1.652846
23.434181 -13.474058 1.652846
23.457691 -13.496509 1.652846
23.483322 -13.5165 1.652846
23.510822 -13.533834 1.652846
23.539917 -13.548334 1.652846
23.570311 -13.559858 1.652846
23.601706 -13.568291 1.652846
23.633785 -13.573545 1.652846
23.666227 -13.575573 1.652846
23.698711 -13.57435 1.652846
23.730911 -13.569891 1.652846
23.762505 -13.56224 1.652846
23.793177 -13.551473 1.652846
23.82262 -13.537697 1.652846
23.85054 -13.521051 1.652846
23.876661 -13.5017 1.652846
23.900719 -13.479839 1.652846
23.922474 -13.455686 1.652846
23.941708 -13.429481 1.652846
23.958231 -13.401485 1.652846
23.971876 -13.371982 1.652846
23.982508 -13.341263 1.652846
23.990019 -13.309636 1.652846
23.994335 -13.277417 1.652846
23.970203 -13.250395 1.6215625
23.968706 -13.22045 1.6215625
23.964226 -13.190804 1.6215625
23.956808 -13.161755 1.6215625
23.946526 -13.133591 1.6215625
23.933485 -13.106593 1.6215625
23.917814 -13.081033 1.6215625
23.89967 -13.057164 1.6215625
23.879232 -13.035227 1.6215625
23.856707 -13.015439 1.6215625
23.832319 -12.997999 1.6215625
23.806313 -12.983081 1.6215625
23.778946 -12.970833 1.6215625
23.750492 -12.961379 1.6215625
23.721239 -12.954813 1.6215625
23.691475 -12.9512 1.6215625
23.661499 -12.950577 1.6215625
23.631611 -12.952949 1.6215625
23.60211 -12.958293 1.6215625
23.573288 -12.966556 1.6215625
23.545435 -12.977654 1.6215625
23.518831 -12.991478 1.6215625
23.493738 -13.00789 1.6215625
23.470411 -13.026723 1.6215625
23.44908 -13.047792 1.6215625
23.429958 -13.070886 1.6215625
23.413237 -13.095772 1.6215625
23.399084 -13.122204 1.6215625
23.387642 -13.149917 1.6215625
23.379023 -13.178633 1.6215625
23.373314 -13.208066 1.6215625
23.370571 -13.237923 1.6215625
23.370823 -13.267903 1.6215625
23.374067 -13.297709 1.6215625
23.38027 -13.327044 1.6215625
