# .PCD v0.7 - Point Cloud Data file format
VERSION 0.7
FIELDS x y z
SIZE 4 4 4
TYPE F F F
COUNT 1 1 1
WIDTH 1544
HEIGHT 1
VIEWPOINT 0 0 0 1 0 0 0
POINTS 1544
DATA ascii
5.7247176 7.6059437 0.45519811
5.7247176 7.6059437 0.55519813
5.7247176 7.6059437 0.65519816
5.7247176 7.6059437 0.75519818
5.7247176 7.6059437 0.8551982
5.7247176 7.6059437 0.95519823
5.7247176 7.6059437 1.0551982
5.7247176 7.6059437 1.1551982
5.7247176 7.6059437 1.2551982
5.7247176 7.6059437 1.3551983
5.7247176 7.6059437 1.4551983
5.7247176 7.6059437 1.5551983
5.7247176 7.6059437 1.6551983
5.7247176 7.6059437 1.7551984
5.7247176 7.6059437 1.8551984
5.7247176 7.6059437 1.9551984
5.7247176 7.6059437 2.0551984
5.7247176 7.6059437 2.1551983
5.7247176 7.6059437 2.2551982
5.7247176 7.6059437 2.3551981
5.7371125 7.5670362 0.45519811
5.7371125 7.5670362 0.55519813
5.7371125 7.5670362 0.65519816
5.7371125 7.5670362 0.75519818
5.7371125 7.5670362 0.8551982
5.7371125 7.5670362 0.95519823
5.7371125 7.5670362 1.0551982
5.7371125 7.5670362 1.1551982
5.7371125 7.5670362 1.2551982
5.7371125 7.5670362 1.3551983
5.7371125 7.5670362 1.4551983
5.7371125 7.5670362 1.5551983
5.7371125 7.5670362 1.6551983
5.7371125 7.5670362 1.7551984
5.7371125 7.5670362 1.8551984
5.7371125 7.5670362 1.9551984
5.7371125 7.5670362 2.0551984
5.7371125 7.5670362 2.1551983
5.7371125 7.5670362 2.2551982
5.7371125 7.5670362 2.3551981
5.7533298 7.5295606 0.45519811
5.7533298 7.5295606 0.55519813
5.7533298 7.5295606 0.65519816
5.7533298 7.5295606 0.75519818
5.7533298 7.5295606 0.8551982
5.7533298 7.5295606 0.95519823
5.7533298 7.5295606 1.0551982
5.7533298 7.5295606 1.1551982
5.7533298 7.5295606 1.2551982
5.7533298 7.5295606 1.3551983
5.7533298 7.5295606 1.4551983
5.7533298 7.5295606 1.5551983
5.7533298 7.5295606 1.6551983
5.7533298 7.5295606 1.7551984
5.7533298 7.5295606 1.8551984
5.7533298 7.5295606 1.9551984
5.7533298 7.5295606 2.0551984
5.7533298 7.5295606 2.1551983
5.7533298 7.5295606 2.2551982
5.7533298 7.5295606 2.3551981
5.7732072 7.4938908 0.45519811
5.7732072 7.4938908 0.55519813
5.7732072 7.4938908 0.65519816
5.7732072 7.4938908 0.75519818
5.7732072 7.4938908 0.8551982
5.7732072 7.4938908 0.95519823
5.7732072 7.4938908 1.0551982
5.7732072 7.4938908 1.1551982
5.7732072 7.4938908 1.2551982
5.7732072 7.4938908 1.3551983
5.7732072 7.4938908 1.4551983
5.7732072 7.4938908 1.5551983
5.7732072 7.4938908 1.6551983
5.7732072 7.4938908 1.7551984
5.7732072 7.4938908 1.8551984
5.7732072 7.4938908 1.9551984
5.7732072 7.4938908 2.0551984
5.7732072 7.4938908 2.1551983
5.7732072 7.4938908 2.2551982
5.7732072 7.4938908 2.3551981
5.796546 7.4603844 0.45519811
5.796546 7.4603844 0.55519813
5.796546 7.4603844 0.65519816
5.796546 7.4603844 0.75519818
5.796546 7.4603844 0.8551982
5.796546 7.4603844 0.95519823
5.796546 7.4603844 1.0551982
5.796546 7.4603844 1.1551982
5.796546 7.4603844 1.2551982
5.796546 7.4603844 1.3551983
5.796546 7.4603844 1.4551983
5.796546 7.4603844 1.5551983
5.796546 7.4603844 1.6551983
5.796546 7.4603844 1.7551984
5.796546 7.4603844 1.8551984
5.796546 7.4603844 1.9551984
5.796546 7.4603844 2.0551984
5.796546 7.4603844 2.1551983
5.796546 7.4603844 2.2551982
5.796546 7.4603844 2.3551981
5.8231139 7.4293747 0.45519811
5.8231139 7.4293747 0.55519813
5.8231139 7.4293747 0.65519816
5.8231139 7.4293747 0.75519818
5.8231139 7.4293747 0.8551982
5.8231139 7.4293747 0.95519823
5.8231139 7.4293747 1.0551982
5.8231139 7.4293747 1.1551982
5.8231139 7.4293747 1.2551982
5.8231139 7.4293747 1.3551983
5.8231139 7.4293747 1.4551983
5.8231139 7.4293747 1.5551983
5.8231139 7.4293747 1.6551983
5.8231139 7.4293747 1.7551984
5.8231139 7.4293747 1.8551984
5.8231139 7.4293747 1.9551984
5.8231139 7.4293747 2.0551984
5.8231139 7.4293747 2.1551983
5.8231139 7.4293747 2.2551982
5.8231139 7.4293747 2.3551981
5.8526444 7.4011726 0.45519811
5.8526444 7.4011726 0.55519813
5.8526444 7.4011726 0.65519816
5.8526444 7.4011726 0.75519818
5.8526444 7.4011726 0.8551982
5.8526444 7.4011726 0.95519823
5.8526444 7.4011726 1.0551982
5.8526444 7.4011726 1.1551982
5.8526444 7.4011726 1.2551982
5.8526444 7.4011726 1.3551983
5.8526444 7.4011726 1.4551983
5.8526444 7.4011726 1.5551983
5.8526444 7.4011726 1.6551983
5.8526444 7.4011726 1.7551984
5.8526444 7.4011726 1.8551984
5.8526444 7.4011726 1.9551984
5.8526444 7.4011726 2.0551984
5.8526444 7.4011726 2.1551983
5.8526444 7.4011726 2.2551982
5.8526444 7.4011726 2.3551981
5.8848433 7.3760595 0.45519811
5.8848433 7.3760595 0.55519813
5.8848433 7.3760595 0.65519816
5.8848433 7.3760595 0.75519818
5.8848433 7.3760595 0.8551982
5.8848433 7.3760595 0.95519823
5.8848433 7.3760595 1.0551982
5.8848433 7.3760595 1.1551982
5.8848433 7.3760595 1.2551982
5.8848433 7.3760595 1.3551983
5.8848433 7.3760595 1.4551983
5.8848433 7.3760595 1.5551983
5.8848433 7.3760595 1.6551983
5.8848433 7.3760595 1.7551984
5.8848433 7.3760595 1.8551984
5.8848433 7.3760595 1.9551984
5.8848433 7.3760595 2.0551984
5.8848433 7.3760595 2.1551983
5.8848433 7.3760595 2.2551982
5.8848433 7.3760595 2.3551981
5.9193883 7.3542862 0.45519811
5.9193883 7.3542862 0.55519813
5.9193883 7.3542862 0.65519816
5.9193883 7.3542862 0.75519818
5.9193883 7.3542862 0.8551982
5.9193883 7.3542862 0.95519823
5.9193883 7.3542862 1.0551982
5.9193883 7.3542862 1.1551982
5.9193883 7.3542862 1.2551982
5.9193883 7.3542862 1.3551983
5.9193883 7.3542862 1.4551983
5.9193883 7.3542862 1.5551983
5.9193883 7.3542862 1.6551983
5.9193883 7.3542862 1.7551984
5.9193883 7.3542862 1.8551984
5.9193883 7.3542862 1.9551984
5.9193883 7.3542862 2.0551984
5.9193883 7.3542862 2.1551983
5.9193883 7.3542862 2.2551982
5.9193883 7.3542862 2.3551981
5.9559345 7.3360705 0.45519811
5.9559345 7.3360705 0.55519813
5.9559345 7.3360705 0.65519816
5.9559345 7.3360705 0.75519818
5.9559345 7.3360705 0.8551982
5.9559345 7.3360705 0.95519823
5.9559345 7.3360705 1.0551982
5.9559345 7.3360705 1.1551982
5.9559345 7.3360705 1.2551982
5.9559345 7.3360705 1.3551983
5.9559345 7.3360705 1.4551983
5.9559345 7.3360705 1.5551983
5.9559345 7.3360705 1.6551983
5.9559345 7.3360705 1.7551984
5.9559345 7.3360705 1.8551984
5.9559345 7.3360705 1.9551984
5.9559345 7.3360705 2.0551984
5.9559345 7.3360705 2.1551983
5.9559345 7.3360705 2.2551982
5.9559345 7.3360705 2.3551981
5.9941163 7.3215942 0.45519811
5.9941163 7.3215942 0.55519813
5.9941163 7.3215942 0.65519816
5.9941163 7.3215942 0.75519818
5.9941163 7.3215942 0.8551982
5.9941163 7.3215942 0.95519823
5.9941163 7.3215942 1.0551982
5.9941163 7.3215942 1.1551982
5.9941163 7.3215942 1.2551982
5.9941163 7.3215942 1.3551983
5.9941163 7.3215942 1.4551983
5.9941163 7.3215942 1.5551983
5.9941163 7.3215942 1.6551983
5.9941163 7.3215942 1.7551984
5.9941163 7.3215942 1.8551984
5.9941163 7.3215942 1.9551984
5.9941163 7.3215942 2.0551984
5.9941163 7.3215942 2.1551983
5.9941163 7.3215942 2.2551982
5.9941163 7.3215942 2.3551981
6.0335526 7.3110027 0.45519811
6.0335526 7.3110027 0.55519813
6.0335526 7.3110027 0.65519816
6.0335526 7.3110027 0.75519818
6.0335526 7.3110027 0.8551982
6.0335526 7.3110027 0.95519823
6.0335526 7.3110027 1.0551982
6.0335526 7.3110027 1.1551982
6.0335526 7.3110027 1.2551982
6.0335526 7.3110027 1.3551983
6.0335526 7.3110027 1.4551983
6.0335526 7.3110027 1.5551983
6.0335526 7.3110027 1.6551983
6.0335526 7.3110027 1.7551984
6.0335526 7.3110027 1.8551984
6.0335526 7.3110027 1.9551984
6.0335526 7.3110027 2.0551984
6.0335526 7.3110027 2.1551983
6.0335526 7.3110027 2.2551982
6.0335526 7.3110027 2.3551981
6.0738497 7.3044004 0.45519811
6.0738497 7.3044004 0.55519813
6.0738497 7.3044004 0.65519816
6.0738497 7.3044004 0.75519818
6.0738497 7.3044004 0.8551982
6.0738497 7.3044004 0.95519823
6.0738497 7.3044004 1.0551982
6.0738497 7.3044004 1.1551982
6.0738497 7.3044004 1.2551982
6.0738497 7.3044004 1.3551983
6.0738497 7.3044004 1.4551983
6.0738497 7.3044004 1.5551983
6.0738497 7.3044004 1.6551983
6.0738497 7.3044004 1.7551984
6.0738497 7.3044004 1.8551984
6.0738497 7.3044004 1.9551984
6.0738497 7.3044004 2.0551984
6.0738497 7.3044004 2.1551983
6.0738497 7.3044004 2.2551982
6.0738497 7.3044004 2.3551981
6.1146045 7.3018546 0.45519811
6.1146045 7.3018546 0.55519813
6.1146045 7.3018546 0.65519816
6.1146045 7.3018546 0.75519818
6.1146045 7.3018546 0.8551982
6.1146045 7.3018546 0.95519823
6.1146045 7.3018546 1.0551982
6.1146045 7.3018546 1.1551982
6.1146045 7.3018546 1.2551982
6.1146045 7.3018546 1.3551983
6.1146045 7.3018546 1.4551983
6.1146045 7.3018546 1.5551983
6.1146045 7.3018546 1.6551983
6.1146045 7.3018546 1.7551984
6.1146045 7.3018546 1.8551984
6.1146045 7.3018546 1.9551984
6.1146045 7.3018546 2.0551984
6.1146045 7.3018546 2.1551983
6.1146045 7.3018546 2.2551982
6.1146045 7.3018546 2.3551981
6.1554093 7.30339 0.45519811
6.1554093 7.30339 0.55519813
6.1554093 7.30339 0.65519816
6.1554093 7.30339 0.75519818
6.1554093 7.30339 0.8551982
6.1554093 7.30339 0.95519823
6.1554093 7.30339 1.0551982
6.1554093 7.30339 1.1551982
6.1554093 7.30339 1.2551982
6.1554093 7.30339 1.3551983
6.1554093 7.30339 1.4551983
6.1554093 7.30339 1.5551983
6.1554093 7.30339 1.6551983
6.1554093 7.30339 1.7551984
6.1554093 7.30339 1.8551984
6.1554093 7.30339 1.9551984
6.1554093 7.30339 2.0551984
6.1554093 7.30339 2.1551983
6.1554093 7.30339 2.2551982
6.1554093 7.30339 2.3551981
6.1958575 7.3089914 0.45519811
6.1958575 7.3089914 0.55519813
6.1958575 7.3089914 0.65519816
6.1958575 7.3089914 0.75519818
6.1958575 7.3089914 0.8551982
6.1958575 7.3089914 0.95519823
6.1958575 7.3089914 1.0551982
6.1958575 7.3089914 1.1551982
6.1958575 7.3089914 1.2551982
6.1958575 7.3089914 1.3551983
6.1958575 7.3089914 1.4551983
6.1958575 7.3089914 1.5551983
6.1958575 7.3089914 1.6551983
6.1958575 7.3089914 1.7551984
6.1958575 7.3089914 1.8551984
6.1958575 7.3089914 1.9551984
6.1958575 7.3089914 2.0551984
6.1958575 7.3089914 2.1551983
6.1958575 7.3089914 2.2551982
6.1958575 7.3089914 2.3551981
6.2355447 7.3186026 0.45519811
6.2355447 7.3186026 0.55519813
6.2355447 7.3186026 0.65519816
6.2355447 7.3186026 0.75519818
6.2355447 7.3186026 0.8551982
6.2355447 7.3186026 0.95519823
6.2355447 7.3186026 1.0551982
6.2355447 7.3186026 1.1551982
6.2355447 7.3186026 1.2551982
6.2355447 7.3186026 1.3551983
6.2355447 7.3186026 1.4551983
6.2355447 7.3186026 1.5551983
6.2355447 7.3186026 1.6551983
6.2355447 7.3186026 1.7551984
6.2355447 7.3186026 1.8551984
6.2355447 7.3186026 1.9551984
6.2355447 7.3186026 2.0551984
6.2355447 7.3186026 2.1551983
6.2355447 7.3186026 2.2551982
6.2355447 7.3186026 2.3551981
6.2740736 7.3321285 0.45519811
6.2740736 7.3321285 0.55519813
6.2740736 7.3321285 0.65519816
6.2740736 7.3321285 0.75519818
6.2740736 7.3321285 0.8551982
6.2740736 7.3321285 0.95519823
6.2740736 7.3321285 1.0551982
6.2740736 7.3321285 1.1551982
6.2740736 7.3321285 1.2551982
6.2740736 7.3321285 1.3551983
6.2740736 7.3321285 1.4551983
6.2740736 7.3321285 1.5551983
6.2740736 7.3321285 1.6551983
6.2740736 7.3321285 1.7551984
6.2740736 7.3321285 1.8551984
6.2740736 7.3321285 1.9551984
6.2740736 7.3321285 2.0551984
6.2740736 7.3321285 2.1551983
6.2740736 7.3321285 2.2551982
6.2740736 7.3321285 2.3551981
6.3110595 7.3494329 0.45519811
6.3110595 7.3494329 0.55519813
6.3110595 7.3494329 0.65519816
6.3110595 7.3494329 0.75519818
6.3110595 7.3494329 0.8551982
6.3110595 7.3494329 0.95519823
6.3110595 7.3494329 1.0551982
6.3110595 7.3494329 1.1551982
6.3110595 7.3494329 1.2551982
6.3110595 7.3494329 1.3551983
6.3110595 7.3494329 1.4551983
6.3110595 7.3494329 1.5551983
6.3110595 7.3494329 1.6551983
6.3110595 7.3494329 1.7551984
6.3110595 7.3494329 1.8551984
6.3110595 7.3494329 1.9551984
6.3110595 7.3494329 2.0551984
6.3110595 7.3494329 2.1551983
6.3110595 7.3494329 2.2551982
6.3110595 7.3494329 2.3551981
6.3461337 7.3703432 0.45519811
6.3461337 7.3703432 0.55519813
6.3461337 7.3703432 0.65519816
6.3461337 7.3703432 0.75519818
6.3461337 7.3703432 0.8551982
6.3461337 7.3703432 0.95519823
6.3461337 7.3703432 1.0551982
6.3461337 7.3703432 1.1551982
6.3461337 7.3703432 1.2551982
6.3461337 7.3703432 1.3551983
6.3461337 7.3703432 1.4551983
6.3461337 7.3703432 1.5551983
6.3461337 7.3703432 1.6551983
6.3461337 7.3703432 1.7551984
6.3461337 7.3703432 1.8551984
6.3461337 7.3703432 1.9551984
6.3461337 7.3703432 2.0551984
6.3461337 7.3703432 2.1551983
6.3461337 7.3703432 2.2551982
6.3461337 7.3703432 2.3551981
6.3789449 7.3946509 0.45519811
6.3789449 7.3946509 0.55519813
6.3789449 7.3946509 0.65519816
6.3789449 7.3946509 0.75519818
6.3789449 7.3946509 0.8551982
6.3789449 7.3946509 0.95519823
6.3789449 7.3946509 1.0551982
6.3789449 7.3946509 1.1551982
6.3789449 7.3946509 1.2551982
6.3789449 7.3946509 1.3551983
6.3789449 7.3946509 1.4551983
6.3789449 7.3946509 1.5551983
6.3789449 7.3946509 1.6551983
6.3789449 7.3946509 1.7551984
6.3789449 7.3946509 1.8551984
6.3789449 7.3946509 1.9551984
6.3789449 7.3946509 2.0551984
6.3789449 7.3946509 2.1551983
6.3789449 7.3946509 2.2551982
6.3789449 7.3946509 2.3551981
6.4091654 7.4221125 0.45519811
6.4091654 7.4221125 0.55519813
6.4091654 7.4221125 0.65519816
6.4091654 7.4221125 0.75519818
6.4091654 7.4221125 0.8551982
6.4091654 7.4221125 0.95519823
6.4091654 7.4221125 1.0551982
6.4091654 7.4221125 1.1551982
6.4091654 7.4221125 1.2551982
6.4091654 7.4221125 1.3551983
6.4091654 7.4221125 1.4551983
6.4091654 7.4221125 1.5551983
6.4091654 7.4221125 1.6551983
6.4091654 7.4221125 1.7551984
6.4091654 7.4221125 1.8551984
6.4091654 7.4221125 1.9551984
6.4091654 7.4221125 2.0551984
6.4091654 7.4221125 2.1551983
6.4091654 7.4221125 2.2551982
6.4091654 7.4221125 2.3551981
6.4364929 7.4524541 0.45519811
6.4364929 7.4524541 0.55519813
6.4364929 7.4524541 0.65519816
6.4364929 7.4524541 0.75519818
6.4364929 7.4524541 0.8551982
6.4364929 7.4524541 0.95519823
6.4364929 7.4524541 1.0551982
6.4364929 7.4524541 1.1551982
6.4364929 7.4524541 1.2551982
6.4364929 7.4524541 1.3551983
6.4364929 7.4524541 1.4551983
6.4364929 7.4524541 1.5551983
6.4364929 7.4524541 1.6551983
6.4364929 7.4524541 1.7551984
6.4364929 7.4524541 1.8551984
6.4364929 7.4524541 1.9551984
6.4364929 7.4524541 2.0551984
6.4364929 7.4524541 2.1551983
6.4364929 7.4524541 2.2551982
6.4364929 7.4524541 2.3551981
6.4606552 7.4853721 0.45519811
6.4606552 7.4853721 0.55519813
6.4606552 7.4853721 0.65519816
6.4606552 7.4853721 0.75519818
6.4606552 7.4853721 0.8551982
6.4606552 7.4853721 0.95519823
6.4606552 7.4853721 1.0551982
6.4606552 7.4853721 1.1551982
6.4606552 7.4853721 1.2551982
6.4606552 7.4853721 1.3551983
6.4606552 7.4853721 1.4551983
6.4606552 7.4853721 1.5551983
6.4606552 7.4853721 1.6551983
6.4606552 7.4853721 1.7551984
6.4606552 7.4853721 1.8551984
6.4606552 7.4853721 1.9551984
6.4606552 7.4853721 2.0551984
6.4606552 7.4853721 2.1551983
6.4606552 7.4853721 2.2551982
6.4606552 7.4853721 2.3551981
6.4814105 7.5205383 0.45519811
6.4814105 7.5205383 0.55519813
6.4814105 7.5205383 0.65519816
6.4814105 7.5205383 0.75519818
6.4814105 7.5205383 0.8551982
6.4814105 7.5205383 0.95519823
6.4814105 7.5205383 1.0551982
6.4814105 7.5205383 1.1551982
6.4814105 7.5205383 1.2551982
6.4814105 7.5205383 1.3551983
6.4814105 7.5205383 1.4551983
6.4814105 7.5205383 1.5551983
6.4814105 7.5205383 1.6551983
6.4814105 7.5205383 1.7551984
6.4814105 7.5205383 1.8551984
6.4814105 7.5205383 1.9551984
6.4814105 7.5205383 2.0551984
6.4814105 7.5205383 2.1551983
6.4814105 7.5205383 2.2551982
6.4814105 7.5205383 2.3551981
6.4985514 7.5576005 0.45519811
6.4985514 7.5576005 0.55519813
6.4985514 7.5576005 0.65519816
6.4985514 7.5576005 0.75519818
6.4985514 7.5576005 0.8551982
6.4985514 7.5576005 0.95519823
6.4985514 7.5576005 1.0551982
6.4985514 7.5576005 1.1551982
6.4985514 7.5576005 1.2551982
6.4985514 7.5576005 1.3551983
6.4985514 7.5576005 1.4551983
6.4985514 7.5576005 1.5551983
6.4985514 7.5576005 1.6551983
6.4985514 7.5576005 1.7551984
6.4985514 7.5576005 1.8551984
6.4985514 7.5576005 1.9551984
6.4985514 7.5576005 2.0551984
6.4985514 7.5576005 2.1551983
6.4985514 7.5576005 2.2551982
6.4985514 7.5576005 2.3551981
6.5119066 7.596189 0.45519811
6.5119066 7.596189 0.55519813
6.5119066 7.596189 0.65519816
6.5119066 7.596189 0.75519818
6.5119066 7.596189 0.8551982
6.5119066 7.596189 0.95519823
6.5119066 7.596189 1.0551982
6.5119066 7.596189 1.1551982
6.5119066 7.596189 1.2551982
6.5119066 7.596189 1.3551983
6.5119066 7.596189 1.4551983
6.5119066 7.596189 1.5551983
6.5119066 7.596189 1.6551983
6.5119066 7.596189 1.7551984
6.5119066 7.596189 1.8551984
6.5119066 7.596189 1.9551984
6.5119066 7.596189 2.0551984
6.5119066 7.596189 2.1551983
6.5119066 7.596189 2.2551982
6.5119066 7.596189 2.3551981
6.5213423 7.6359177 0.45519811
6.5213423 7.6359177 0.55519813
6.5213423 7.6359177 0.65519816
6.5213423 7.6359177 0.75519818
6.5213423 7.6359177 0.8551982
6.5213423 7.6359177 0.95519823
6.5213423 7.6359177 1.0551982
6.5213423 7.6359177 1.1551982
6.5213423 7.6359177 1.2551982
6.5213423 7.6359177 1.3551983
6.5213423 7.6359177 1.4551983
6.5213423 7.6359177 1.5551983
6.5213423 7.6359177 1.6551983
6.5213423 7.6359177 1.7551984
6.5213423 7.6359177 1.8551984
6.5213423 7.6359177 1.9551984
6.5213423 7.6359177 2.0551984
6.5213423 7.6359177 2.1551983
6.5213423 7.6359177 2.2551982
6.5213423 7.6359177 2.3551981
6.5267649 7.6763902 0.45519811
6.5267649 7.6763902 0.55519813
6.5267649 7.6763902 0.65519816
6.5267649 7.6763902 0.75519818
6.5267649 7.6763902 0.8551982
6.5267649 7.6763902 0.95519823
6.5267649 7.6763902 1.0551982
6.5267649 7.6763902 1.1551982
6.5267649 7.6763902 1.2551982
6.5267649 7.6763902 1.3551983
6.5267649 7.6763902 1.4551983
6.5267649 7.6763902 1.5551983
6.5267649 7.6763902 1.6551983
6.5267649 7.6763902 1.7551984
6.5267649 7.6763902 1.8551984
6.5267649 7.6763902 1.9551984
6.5267649 7.6763902 2.0551984
6.5267649 7.6763902 2.1551983
6.5267649 7.6763902 2.2551982
6.5267649 7.6763902 2.3551981
18.68504 -13.990116 0.72404504
18.68504 -13.990116 0.72404504
18.68504 -13.990116 0.72404504
18.68504 -13.990116 0.72404504
18.68504 -13.990116 0.72404504
18.68504 -13.990116 0.72404504
18.68504 -13.990116 0.72404504
18.68504 -13.990116 0.72404504
18.68504 -13.990116 0.72404504
18.68504 -13.990116 0.72404504
18.68504 -13.990116 0.72404504
18.68504 -13.990116 0.72404504
18.68504 -13.990116 0.72404504
18.68504 -13.990116 0.72404504
18.68504 -13.990116 0.72404504
18.68504 -13.990116 0.72404504
18.68504 -13.990116 0.72404504
18.68504 -13.990116 0.72404504
18.68504 -13.990116 0.72404504
18.68504 -13.990116 0.72404504
18.68504 -13.990116 0.72404504
18.68504 -13.990116 0.72404504
18.68504 -13.990116 0.72404504
18.68504 -13.990116 0.72404504
18.68504 -13.990116 0.72404504
18.68504 -13.990116 0.72404504
18.68504 -13.990116 0.72404504
18.68504 -13.990116 0.72404504
18.68504 -13.990116 0.72404504
18.68504 -13.990116 0.72404504
18.68504 -13.990116 0.72404504
18.68504 -13.990116 0.72404504
18.68504 -13.990116 0.72404504
18.68504 -13.990116 0.72404504
18.68504 -13.990116 0.72404504
18.68504 -13.990116 0.72404504
18.68504 -13.990116 0.72404504
18.68504 -13.990116 0.72404504
18.68504 -13.990116 0.72404504
18.68504 -13.990116 0.72404504
18.68504 -13.990116 0.72404504
18.68504 -13.990116 0.72404504
18.68504 -13.990116 0.72404504
18.68504 -13.990116 0.72404504
18.68504 -13.990116 0.72404504
18.68504 -13.990116 0.72404504
18.68504 -13.990116 0.72404504
18.68504 -13.990116 0.72404504
18.68504 -13.990116 0.72404504
18.68504 -13.990116 0.72404504
18.68504 -13.990116 0.72404504
18.68504 -13.990116 0.72404504
18.68504 -13.990116 0.72404504
18.68504 -13.990116 0.72404504
18.68504 -13.990116 0.72404504
18.68504 -13.990116 0.72404504
18.68504 -13.990116 0.72404504
18.68504 -13.990116 0.72404504
18.68504 -13.990116 0.72404504
18.68504 -13.990116 0.72404504
18.68504 -13.990116 0.72404504
18.68504 -13.990116 0.72404504
18.68504 -13.990116 0.72404504
18.724413 -13.990116 0.72207463
18.724216 -13.986185 0.72207463
18.723629 -13.982294 0.72207463
18.722654 -13.97848 0.72207463
18.721306 -13.974783 0.72207463
18.719593 -13.971239 0.72207463
18.717537 -13.967884 0.72207463
18.715155 -13.96475 0.72207463
18.712471 -13.961871 0.72207463
18.709515 -13.959273 0.72207463
18.706314 -13.956984 0.72207463
18.7029 -13.955026 0.72207463
18.699306 -13.953418 0.72207463
18.695572 -13.952177 0.72207463
18.691732 -13.951315 0.72207463
18.687824 -13.950841 0.72207463
18.683889 -13.950759 0.72207463
18.679966 -13.95107 0.72207463
18.676094 -13.951772 0.72207463
18.67231 -13.952856 0.72207463
18.668653 -13.954313 0.72207463
18.665161 -13.956128 0.72207463
18.661867 -13.958282 0.72207463
18.658806 -13.960754 0.72207463
18.656006 -13.96352 0.72207463
18.653496 -13.966552 0.72207463
18.6513 -13.969819 0.72207463
18.649443 -13.973289 0.72207463
18.64794 -13.976926 0.72207463
18.646809 -13.980696 0.72207463
18.646059 -13.98456 0.72207463
18.645699 -13.988479 0.72207463
18.645733 -13.992414 0.72207463
18.646158 -13.996327 0.72207463
18.646973 -14.000177 0.72207463
18.648167 -14.003928 0.72207463
18.649731 -14.00754 0.72207463
18.651646 -14.010978 0.72207463
18.653896 -14.014208 0.72207463
18.656456 -14.017197 0.72207463
18.659304 -14.019915 0.72207463
18.662407 -14.022335 0.72207463
18.665735 -14.024433 0.72207463
18.669258 -14.026189 0.72207463
18.672939 -14.027584 0.72207463
18.676739 -14.028605 0.72207463
18.680624 -14.029242 0.72207463
18.684551 -14.029488 0.72207463
18.688484 -14.029339 0.72207463
18.692383 -14.028799 0.72207463
18.696209 -14.027873 0.72207463
18.699923 -14.026569 0.72207463
18.703487 -14.024901 0.72207463
18.706867 -14.022886 0.72207463
18.71003 -14.020543 0.72207463
18.712942 -14.017897 0.72207463
18.715576 -14.014972 0.72207463
18.717905 -14.011799 0.72207463
18.719906 -14.00841 0.72207463
18.721558 -14.004837 0.72207463
18.722845 -14.001118 0.72207463
18.723755 -13.997289 0.72207463
18.724277 -13.993388 0.72207463
18.763393 -13.990116 0.7161833
18.763002 -13.982294 0.7161833
18.761833 -13.974549 0.7161833
18.759895 -13.966961 0.7161833
18.75721 -13.959603 0.7161833
18.753801 -13.952551 0.7161833
18.749708 -13.945873 0.7161833
18.744968 -13.939638 0.7161833
18.73963 -13.933908 0.7161833
18.733746 -13.928739 0.7161833
18.727375 -13.924183 0.7161833
18.720581 -13.920286 0.7161833
18.713432 -13.917087 0.7161833
18.705999 -13.914617 0.7161833
18.698357 -13.912902 0.7161833
18.690582 -13.911958 0.7161833
18.682751 -13.911795 0.7161833
18.674944 -13.912415 0.7161833
18.667236 -13.913811 0.7161833
18.659708 -13.915969 0.7161833
18.652431 -13.918868 0.7161833
18.645483 -13.92248 0.7161833
18.638927 -13.926766 0.7161833
18.632833 -13.931686 0.7161833
18.627262 -13.93719 0.7161833
18.622267 -13.943223 0.7161833
18.617899 -13.949724 0.7161833
18.614201 -13.956629 0.7161833
18.611212 -13.963868 0.7161833
18.608961 -13.97137 0.7161833
18.60747 -13.979058 0.7161833
18.606752 -13.986858 0.7161833
18.606819 -13.99469 0.7161833
18.607666 -14.002476 0.7161833
18.609285 -14.010139 0.7161833
18.611664 -14.017602 0.7161833
18.614775 -14.02479 0.7161833
18.618587 -14.031631 0.7161833
18.623064 -14.038058 0.7161833
18.628159 -14.044005 0.7161833
18.633823 -14.049415 0.7161833
18.639999 -14.054232 0.7161833
18.646626 -14.058408 0.7161833
18.653635 -14.061902 0.7161833
18.660959 -14.064678 0.7161833
18.668522 -14.06671 0.7161833
18.676252 -14.067977 0.7161833
18.684069 -14.068465 0.7161833
18.691895 -14.068171 0.7161833
18.699654 -14.067096 0.7161833
18.707266 -14.065252 0.7161833
18.714655 -14.062658 0.7161833
18.72175 -14.05934 0.7161833
18.728477 -14.055328 0.7161833
18.73477 -14.050666 0.7161833
18.740566 -14.045399 0.7161833
18.74581 -14.039579 0.7161833
18.750443 -14.033265 0.7161833
18.754423 -14.02652 0.7161833
18.757711 -14.019411 0.7161833
18.760273 -14.01201 0.7161833
18.762083 -14.00439 0.7161833
18.763123 -13.996627 0.7161833
18.801592 -13.990116 0.70642984
18.80101 -13.97848 0.70642984
18.799269 -13.966961 0.70642984
18.796387 -13.955672 0.70642984
18.792391 -13.944729 0.70642984
18.787325 -13.934237 0.70642984
18.781235 -13.924306 0.70642984
18.774183 -13.91503 0.70642984
18.766243 -13.906507 0.70642984
18.75749 -13.898817 0.70642984
18.748013 -13.89204 0.70642984
18.737907 -13.886244 0.70642984
18.727274 -13.881485 0.70642984
18.716217 -13.877811 0.70642984
18.704849 -13.875259 0.70642984
18.693285 -13.873856 0.70642984
18.681637 -13.873613 0.70642984
18.670023 -13.874536 0.70642984
18.658558 -13.876612 0.70642984
18.64736 -13.879823 0.70642984
18.636536 -13.884135 0.70642984
18.626198 -13.889507 0.70642984
18.616447 -13.895884 0.70642984
18.607384 -13.903202 0.70642984
18.599094 -13.911389 0.70642984
18.591663 -13.920362 0.70642984
18.585167 -13.930033 0.70642984
18.579668 -13.940304 0.70642984
18.575222 -13.951073 0.70642984
18.571873 -13.962231 0.70642984
18.569653 -13.973668 0.70642984
18.568588 -13.98527 0.70642984
18.568686 -13.99692 0.70642984
18.569946 -14.008502 0.70642984
18.572357 -14.0199 0.70642984
18.575893 -14.031001 0.70642984
18.580521 -14.041693 0.70642984
18.586191 -14.051869 0.70642984
18.59285 -14.06143 0.70642984
18.60043 -14.070277 0.70642984
18.608856 -14.078323 0.70642984
18.618042 -14.085488 0.70642984
18.627899 -14.091701 0.70642984
18.638325 -14.096897 0.70642984
18.64922 -14.101027 0.70642984
18.660471 -14.10405 0.70642984
18.671968 -14.105933 0.70642984
18.683596 -14.10666 0.70642984
18.695238 -14.106221 0.70642984
18.706778 -14.104624 0.70642984
18.718102 -14.101881 0.70642984
18.729094 -14.098022 0.70642984
18.739647 -14.093085 0.70642984
18.749653 -14.087119 0.70642984
18.759014 -14.080184 0.70642984
18.767637 -14.072349 0.70642984
18.775433 -14.063692 0.70642984
18.782328 -14.0543 0.70642984
18.788248 -14.044267 0.70642984
18.793139 -14.033692 0.70642984
18.796949 -14.022683 0.70642984
18.799643 -14.011348 0.70642984
18.801189 -13.999801 0.70642984
18.838625 -13.990116 0.69291162
18.837858 -13.974783 0.69291162
18.835564 -13.959603 0.69291162
18.831766 -13.944729 0.69291162
18.826502 -13.930307 0.69291162
18.819824 -13.916483 0.69291162
18.8118 -13.903395 0.69291162
18.802509 -13.891173 0.69291162
18.792044 -13.87994 0.69291162
18.78051 -13.869808 0.69291162
18.768023 -13.860878 0.69291162
18.754705 -13.853239 0.69291162
18.740692 -13.846969 0.69291162
18.726124 -13.842128 0.69291162
18.711143 -13.838765 0.69291162
18.695904 -13.836915 0.69291162
18.680555 -13.836596 0.69291162
18.665251 -13.837811 0.69291162
18.650145 -13.840547 0.69291162
18.635387 -13.844778 0.69291162
18.621126 -13.850461 0.69291162
18.607502 -13.857539 0.69291162
18.594654 -13.865943 0.69291162
18.582708 -13.875587 0.69291162
18.571787 -13.886374 0.69291162
18.561995 -13.898199 0.69291162
18.553434 -13.910942 0.69291162
18.546186 -13.924477 0.69291162
18.540327 -13.938666 0.69291162
18.535913 -13.953371 0.69291162
18.532991 -13.968442 0.69291162
18.531586 -13.983729 0.69291162
18.531715 -13.999082 0.69291162
18.533377 -14.014343 0.69291162
18.536552 -14.029364 0.69291162
18.541214 -14.043991 0.69291162
18.54731 -14.058081 0.69291162
18.554783 -14.071491 0.69291162
18.563559 -14.084088 0.69291162
18.573547 -14.095747 0.69291162
18.584648 -14.10635 0.69291162
18.596754 -14.115791 0.69291162
18.609743 -14.123978 0.69291162
18.623482 -14.130826 0.69291162
18.637836 -14.136269 0.69291162
18.652664 -14.140251 0.69291162
18.667814 -14.142733 0.69291162
18.683136 -14.14369 0.69291162
18.698479 -14.143113 0.69291162
18.713684 -14.141006 0.69291162
18.728605 -14.137393 0.69291162
18.743092 -14.132308 0.69291162
18.756996 -14.125802 0.69291162
18.770184 -14.117941 0.69291162
18.782518 -14.108802 0.69291162
18.79388 -14.098477 0.69291162
18.804155 -14.08707 0.69291162
18.81324 -14.074694 0.69291162
18.821043 -14.061473 0.69291162
18.827486 -14.047539 0.69291162
18.832508 -14.033031 0.69291162
18.836056 -14.018094 0.69291162
18.838095 -14.002878 0.69291162
18.874125 -13.990116 0.67576385
18.873178 -13.971239 0.67576385
18.870356 -13.952551 0.67576385
18.865679 -13.934237 0.67576385
18.859198 -13.916483 0.67576385
18.850977 -13.899465 0.67576385
18.841097 -13.883351 0.67576385
18.829659 -13.868304 0.67576385
18.816776 -13.854475 0.67576385
18.802576 -13.842001 0.67576385
18.787203 -13.831007 0.67576385
18.770807 -13.821603 0.67576385
18.753555 -13.813882 0.67576385
18.735619 -13.807922 0.67576385
18.717178 -13.803783 0.67576385
18.698414 -13.801505 0.67576385
18.679518 -13.801112 0.67576385
18.660677 -13.802608 0.67576385
18.642078 -13.805977 0.67576385
18.623911 -13.811186 0.67576385
18.606352 -13.818182 0.67576385
18.589581 -13.826897 0.67576385
18.573763 -13.837242 0.67576385
18.559057 -13.849115 0.67576385
18.54561 -13.862396 0.67576385
18.533556 -13.876954 0.67576385
18.523016 -13.892643 0.67576385
18.514093 -13.909306 0.67576385
18.50688 -13.926775 0.67576385
18.501446 -13.944878 0.67576385
18.497847 -13.963432 0.67576385
18.496119 -13.982254 0.67576385
18.496277 -14.001154 0.67576385
18.498323 -14.019943 0.67576385
18.502234 -14.038435 0.67576385
18.507971 -14.056443 0.67576385
18.515476 -14.07379 0.67576385
18.524677 -14.0903 0.67576385
18.53548 -14.105808 0.67576385
18.547777 -14.120162 0.67576385
18.561445 -14.133216 0.67576385
18.576349 -14.144839 0.67576385
18.592339 -14.154918 0.67576385
18.609255 -14.163348 0.67576385
18.626926 -14.170049 0.67576385
18.645182 -14.174952 0.67576385
18.663834 -14.178007 0.67576385
18.682697 -14.179186 0.67576385
18.701584 -14.178475 0.67576385
18.720306 -14.175882 0.67576385
18.738676 -14.171433 0.67576385
18.756508 -14.165174 0.67576385
18.773628 -14.157164 0.67576385
18.789862 -14.147485 0.67576385
18.80505 -14.136234 0.67576385
18.819038 -14.123523 0.67576385
18.831686 -14.109479 0.67576385
18.842871 -14.094243 0.67576385
18.852478 -14.077966 0.67576385
18.860411 -14.060811 0.67576385
18.866592 -14.04295 0.67576385
18.87096 -14.024561 0.67576385
18.87347 -14.005828 0.67576385
18.907734 -13.990116 0.6551578
18.90662 -13.967884 0.6551578
18.903294 -13.945873 0.6551578
18.897787 -13.924306 0.6551578
18.890154 -13.903395 0.6551578
18.880472 -13.883351 0.6551578
18.868837 -13.864374 0.6551578
18.855366 -13.846653 0.6551578
18.840191 -13.830365 0.6551578
18.823467 -13.815674 0.6551578
18.805361 -13.802726 0.6551578
18.786053 -13.79165 0.6551578
18.765734 -13.782557 0.6551578
18.74461 -13.775537 0.6551578
18.722891 -13.770662 0.6551578
18.700792 -13.767981 0.6551578
18.678537 -13.767517 0.6551578
18.656347 -13.769279 0.6551578
18.634443 -13.773247 0.6551578
18.613045 -13.779381 0.6551578
18.592365 -13.787621 0.6551578
18.572613 -13.797885 0.6551578
18.553984 -13.810069 0.6551578
18.536665 -13.824052 0.6551578
18.520826 -13.839695 0.6551578
18.50663 -13.85684 0.6551578
18.494215 -13.875318 0.6551578
18.483707 -13.894941 0.6551578
18.475212 -13.915516 0.6551578
18.468813 -13.936836 0.6551578
18.464575 -13.95869 0.6551578
18.462538 -13.980856 0.6551578
18.462725 -14.003116 0.6551578
18.465134 -14.025245 0.6551578
18.46974 -14.047023 0.6551578
18.476496 -14.068233 0.6551578
18.485336 -14.088662 0.6551578
18.496172 -14.108107 0.6551578
18.508896 -14.126372 0.6551578
18.523378 -14.143277 0.6551578
18.539476 -14.158651 0.6551578
18.55703 -14.172341 0.6551578
18.575861 -14.184211 0.6551578
18.595783 -14.19414 0.6551578
18.616598 -14.202032 0.6551578
18.638096 -14.207806 0.6551578
18.660063 -14.211405 0.6551578
18.68228 -14.212792 0.6551578
18.704525 -14.211956 0.6551578
18.726574 -14.208902 0.6551578
18.748209 -14.203663 0.6551578
18.769213 -14.196289 0.6551578
18.789375 -14.186856 0.6551578
18.808495 -14.175457 0.6551578
18.826382 -14.162207 0.6551578
18.842855 -14.147236 0.6551578
18.857752 -14.130695 0.6551578
18.870924 -14.112751 0.6551578
18.882238 -14.093581 0.6551578
18.891582 -14.073377 0.6551578
18.898863 -14.052341 0.6551578
18.904007 -14.030684 0.6551578
18.906963 -14.00862 0.6551578
18.939117 -13.990116 0.63129926
18.937849 -13.96475 0.63129926
18.934053 -13.939638 0.63129926
18.927769 -13.91503 0.63129926
18.919062 -13.891173 0.63129926
18.908014 -13.868304 0.63129926
18.894739 -13.846653 0.63129926
18.87937 -13.826434 0.63129926
18.862057 -13.807852 0.63129926
18.842978 -13.79109 0.63129926
18.822319 -13.776317 0.63129926
18.800289 -13.76368 0.63129926
18.777107 -13.753305 0.63129926
18.753006 -13.745297 0.63129926
18.728224 -13.739735 0.63129926
18.703012 -13.736674 0.63129926
18.67762 -13.736146 0.63129926
18.652304 -13.738156 0.63129926
18.627312 -13.742682 0.63129926
18.6029 -13.749682 0.63129926
18.579306 -13.759084 0.63129926
18.556768 -13.770794 0.63129926
18.535515 -13.784695 0.63129926
18.515753 -13.800649 0.63129926
18.497684 -13.818496 0.63129926
18.481487 -13.838058 0.63129926
18.467323 -13.859138 0.63129926
18.455336 -13.881528 0.63129926
18.445642 -13.905003 0.63129926
18.438341 -13.929328 0.63129926
18.433504 -13.954261 0.63129926
18.431181 -13.979551 0.63129926
18.431395 -14.004948 0.63129926
18.434143 -14.030195 0.63129926
18.439398 -14.055043 0.63129926
18.447105 -14.079242 0.63129926
18.457193 -14.102551 0.63129926
18.469555 -14.124736 0.63129926
18.484072 -14.145576 0.63129926
18.500595 -14.164862 0.63129926
18.518963 -14.182403 0.63129926
18.53899 -14.198022 0.63129926
18.560474 -14.211564 0.63129926
18.583204 -14.222894 0.63129926
18.606953 -14.231897 0.63129926
18.631481 -14.238485 0.63129926
18.656544 -14.242591 0.63129926
18.68189 -14.244175 0.63129926
18.70727 -14.243219 0.63129926
18.732428 -14.239736 0.63129926
18.757111 -14.233758 0.63129926
18.781075 -14.225346 0.63129926
18.804079 -14.214582 0.63129926
18.825893 -14.201577 0.63129926
18.8463 -14.186459 0.63129926
18.865097 -14.169379 0.63129926
18.882093 -14.150508 0.63129926
18.897121 -14.130033 0.63129926
18.91003 -14.108162 0.63129926
18.920691 -14.085111 0.63129926
18.928997 -14.06111 0.63129926
18.934866 -14.036401 0.63129926
18.938238 -14.011229 0.63129926
18.967962 -13.990116 0.6044268
18.966549 -13.961871 0.6044268
18.962324 -13.933908 0.6044268
18.955326 -13.906507 0.6044268
18.945629 -13.87994 0.6044268
18.933329 -13.854475 0.6044268
18.918547 -13.830365 0.6044268
18.901432 -13.807852 0.6044268
18.882154 -13.787159 0.6044268
18.860909 -13.768495 0.6044268
18.837904 -13.752044 0.6044268
18.813372 -13.737972 0.6044268
18.78756 -13.72642 0.6044268
18.760721 -13.717503 0.6044268
18.733128 -13.711309 0.6044268
18.705053 -13.707901 0.6044268
18.676779 -13.707314 0.6044268
18.648586 -13.709551 0.6044268
18.620758 -13.714592 0.6044268
18.593573 -13.722385 0.6044268
18.567301 -13.732855 0.6044268
18.542206 -13.745893 0.6044268
18.518539 -13.761374 0.6044268
18.496534 -13.779139 0.6044268
18.476414 -13.799011 0.6044268
18.458378 -13.820794 0.6044268
18.442606 -13.844269 0.6044268
18.429256 -13.8692 0.6044268
18.418463 -13.89534 0.6044268
18.410332 -13.922426 0.6044268
18.404947 -13.95019 0.6044268
18.402361 -13.978352 0.6044268
18.402597 -14.006631 0.6044268
18.405659 -14.034746 0.6044268
18.411509 -14.062414 0.6044268
18.420094 -14.08936 0.6044268
18.431326 -14.115315 0.6044268
18.445091 -14.140019 0.6044268
18.461256 -14.163225 0.6044268
18.479656 -14.184701 0.6044268
18.500109 -14.204233 0.6044268
18.522408 -14.221626 0.6044268
18.546333 -14.236706 0.6044268
18.571644 -14.249321 0.6044268
18.598087 -14.259347 0.6044268
18.625401 -14.266683 0.6044268
18.653309 -14.271255 0.6044268
18.681534 -14.273018 0.6044268
18.709795 -14.271955 0.6044268
18.737808 -14.268075 0.6044268
18.765293 -14.261418 0.6044268
18.791977 -14.252051 0.6044268
18.817593 -14.240067 0.6044268
18.841885 -14.225585 0.6044268
18.864609 -14.20875 0.6044268
18.885538 -14.189731 0.6044268
18.904465 -14.168717 0.6044268
18.9212 -14.145919 0.6044268
18.935574 -14.121564 0.6044268
18.947445 -14.095896 0.6044268
18.956694 -14.06917 0.6044268
18.96323 -14.041656 0.6044268
18.966986 -14.013625 0.6044268
18.993982 -13.990116 0.57480878
18.992439 -13.959273 0.57480878
18.987823 -13.928739 0.57480878
18.980183 -13.898817 0.57480878
18.969595 -13.869808 0.57480878
18.956161 -13.842001 0.57480878
18.940022 -13.815674 0.57480878
18.921331 -13.79109 0.57480878
18.900282 -13.768495 0.57480878
18.877081 -13.748114 0.57480878
18.851961 -13.73015 0.57480878
18.825174 -13.714785 0.57480878
18.796988 -13.702169 0.57480878
18.767681 -13.692432 0.57480878
18.737549 -13.685669 0.57480878
18.706894 -13.681948 0.57480878
18.676018 -13.681306 0.57480878
18.645233 -13.683749 0.57480878
18.614847 -13.689253 0.57480878
18.585161 -13.697763 0.57480878
18.556475 -13.709196 0.57480878
18.529072 -13.723434 0.57480878
18.503227 -13.740337 0.57480878
18.479198 -13.759736 0.57480878
18.457228 -13.781437 0.57480878
18.437532 -13.805223 0.57480878
18.420311 -13.830855 0.57480878
18.405733 -13.85808 0.57480878
18.393948 -13.886624 0.57480878
18.385069 -13.916202 0.57480878
18.379189 -13.946518 0.57480878
18.376364 -13.97727 0.57480878
18.376623 -14.00815 0.57480878
18.379965 -14.03885 0.57480878
18.386354 -14.069063 0.57480878
18.395729 -14.098488 0.57480878
18.407993 -14.126829 0.57480878
18.423025 -14.153805 0.57480878
18.440676 -14.179145 0.57480878
18.460768 -14.202596 0.57480878
18.483101 -14.223925 0.57480878
18.507452 -14.242916 0.57480878
18.533577 -14.259382 0.57480878
18.561214 -14.273158 0.57480878
18.590092 -14.284106 0.57480878
18.619915 -14.292116 0.57480878
18.650391 -14.29711 0.57480878
18.681211 -14.299035 0.57480878
18.71207 -14.297873 0.57480878
18.742661 -14.293637 0.57480878
18.772675 -14.286368 0.57480878
18.801811 -14.27614 0.57480878
18.829784 -14.263053 0.57480878
18.856308 -14.247239 0.57480878
18.881123 -14.228856 0.57480878
18.903976 -14.208088 0.57480878
18.924644 -14.185142 0.57480878
18.942917 -14.160247 0.57480878
18.958614 -14.133653 0.57480878
18.971577 -14.105623 0.57480878
18.981676 -14.076441 0.57480878
18.988813 -14.046395 0.57480878
18.992914 -14.015787 0.57480878
19.016914 -13.990116 0.54274124
19.015255 -13.956984 0.54274124
19.010298 -13.924183 0.54274124
19.00209 -13.89204 0.54274124
18.990717 -13.860878 0.54274124
18.976286 -13.831007 0.54274124
18.958948 -13.802726 0.54274124
18.938871 -13.776317 0.54274124
18.916258 -13.752044 0.54274124
18.891336 -13.73015 0.54274124
18.864351 -13.710854 0.54274124
18.835577 -13.694347 0.54274124
18.805296 -13.680797 0.54274124
18.773815 -13.670336 0.54274124
18.741447 -13.663071 0.54274124
18.708515 -13.659073 0.54274124
18.675348 -13.658383 0.54274124
18.642279 -13.661008 0.54274124
18.609636 -13.666922 0.54274124
18.577747 -13.676064 0.54274124
18.54693 -13.688344 0.54274124
18.517494 -13.703639 0.54274124
18.489731 -13.721797 0.54274124
18.463921 -13.742636 0.54274124
18.440317 -13.765947 0.54274124
18.419161 -13.791498 0.54274124
18.40066 -13.819035 0.54274124
18.385002 -13.84828 0.54274124
18.372339 -13.878942 0.54274124
18.362804 -13.910715 0.54274124
18.356487 -13.943282 0.54274124
18.353453 -13.976316 0.54274124
18.353731 -14.009489 0.54274124
18.357321 -14.042467 0.54274124
18.364183 -14.074924 0.54274124
18.374254 -14.106532 0.54274124
18.387428 -14.136977 0.54274124
18.403576 -14.165955 0.54274124
18.422537 -14.193175 0.54274124
18.44412 -14.218368 0.54274124
18.468111 -14.241279 0.54274124
18.49427 -14.261681 0.54274124
18.522333 -14.279369 0.54274124
18.552025 -14.294168 0.54274124
18.583042 -14.305928 0.54274124
18.615082 -14.314533 0.54274124
18.647818 -14.319897 0.54274124
18.680927 -14.321965 0.54274124
18.714077 -14.320718 0.54274124
18.746937 -14.316167 0.54274124
18.779179 -14.308359 0.54274124
18.81048 -14.297371 0.54274124
18.840527 -14.283313 0.54274124
18.86902 -14.266325 0.54274124
18.895678 -14.246577 0.54274124
18.920229 -14.224268 0.54274124
18.942429 -14.199618 0.54274124
18.962059 -14.172875 0.54274124
18.97892 -14.144306 0.54274124
18.992846 -14.114197 0.54274124
19.003695 -14.082848 0.54274124
19.01136 -14.050572 0.54274124
19.015766 -14.017693 0.54274124
19.03653 -13.990116 0.5085445
19.034773 -13.955026 0.5085445
19.029524 -13.920286 0.5085445
19.02083 -13.886244 0.5085445
19.008783 -13.853239 0.5085445
18.993502 -13.821603 0.5085445
18.975138 -13.79165 0.5085445
18.953875 -13.76368 0.5085445
18.929926 -13.737972 0.5085445
18.90353 -13.714785 0.5085445
18.87495 -13.694347 0.5085445
18.844475 -13.676866 0.5085445
18.812405 -13.662514 0.5085445
18.779062 -13.651435 0.5085445
18.744781 -13.64374 0.5085445
18.709904 -13.639506 0.5085445
18.674776 -13.638776 0.5085445
18.639751 -13.641556 0.5085445
18.605181 -13.647819 0.5085445
18.571405 -13.657501 0.5085445
18.538769 -13.670507 0.5085445
18.507591 -13.686707 0.5085445
18.478188 -13.705937 0.5085445
18.45085 -13.728008 0.5085445
18.425854 -13.752697 0.5085445
18.403446 -13.779759 0.5085445
18.383852 -13.808923 0.5085445
18.367268 -13.839896 0.5085445
18.353857 -13.872371 0.5085445
18.343758 -13.906022 0.5085445
18.337067 -13.940514 0.5085445
18.333853 -13.975501 0.5085445
18.334148 -14.010633 0.5085445
18.33795 -14.045562 0.5085445
18.345219 -14.079936 0.5085445
18.355885 -14.113413 0.5085445
18.369837 -14.145658 0.5085445
18.38694 -14.176348 0.5085445
18.407022 -14.205177 0.5085445
18.42988 -14.231859 0.5085445
18.45529 -14.256124 0.5085445
18.482994 -14.277732 0.5085445
18.512716 -14.296466 0.5085445
18.544163 -14.31214 0.5085445
18.577015 -14.324594 0.5085445
18.610947 -14.333708 0.5085445
18.645618 -14.339389 0.5085445
18.680685 -14.341579 0.5085445
18.715794 -14.340259 0.5085445
18.750595 -14.335439 0.5085445
18.784742 -14.327168 0.5085445
18.817894 -14.315531 0.5085445
18.849718 -14.300642 0.5085445
18.879896 -14.28265 0.5085445
18.908127 -14.261736 0.5085445
18.93413 -14.238108 0.5085445
18.957644 -14.212001 0.5085445
18.978432 -14.183678 0.5085445
18.99629 -14.15342 0.5085445
19.011038 -14.121531 0.5085445
19.02253 -14.088329 0.5085445
19.030649 -14.054146 0.5085445
19.035315 -14.019322 0.5085445
19.052633 -13.990116 0.47256029
19.050797 -13.953418 0.47256029
19.045307 -13.917087 0.47256029
19.036215 -13.881485 0.47256029
19.023617 -13.846969 0.47256029
19.007633 -13.813882 0.47256029
18.988428 -13.782557 0.47256029
18.96619 -13.753305 0.47256029
18.941145 -13.72642 0.47256029
18.91354 -13.702169 0.47256029
18.883652 -13.680797 0.47256029
18.851778 -13.662514 0.47256029
18.818239 -13.647504 0.47256029
18.783371 -13.635918 0.47256029
18.747519 -13.627871 0.47256029
18.711042 -13.623443 0.47256029
18.674305 -13.622679 0.47256029
18.637676 -13.625586 0.47256029
18.601521 -13.632135 0.47256029
18.5662 -13.642262 0.47256029
18.532066 -13.655864 0.47256029
18.49946 -13.672806 0.47256029
18.46871 -13.692918 0.47256029
18.440121 -13.716 0.47256029
18.413979 -13.741819 0.47256029
18.390543 -13.770122 0.47256029
18.370052 -13.800621 0.47256029
18.352709 -13.833014 0.47256029
18.338684 -13.866976 0.47256029
18.328121 -13.902169 0.47256029
18.321125 -13.938241 0.47256029
18.317762 -13.974831 0.47256029
18.318071 -14.011574 0.47256029
18.322048 -14.048102 0.47256029
18.329651 -14.084051 0.47256029
18.340803 -14.119061 0.47256029
18.355396 -14.152783 0.47256029
18.373283 -14.18488 0.47256029
18.394283 -14.215031 0.47256029
18.41819 -14.242934 0.47256029
18.444763 -14.268312 0.47256029
18.473738 -14.29091 0.47256029
18.504822 -14.310502 0.47256029
18.537708 -14.326893 0.47256029
18.572065 -14.339919 0.47256029
18.607552 -14.34945 0.47256029
18.643812 -14.355392 0.47256029
18.680485 -14.357682 0.47256029
18.717203 -14.3563 0.47256029
18.753599 -14.35126 0.47256029
18.78931 -14.342611 0.47256029
18.82398 -14.330441 0.47256029
18.857264 -14.314869 0.47256029
18.888823 -14.296053 0.47256029
18.918348 -14.27418 0.47256029
18.945541 -14.24947 0.47256029
18.970133 -14.222167 0.47256029
18.991875 -14.192546 0.47256029
19.010551 -14.160902 0.47256029
19.025974 -14.127552 0.47256029
19.037992 -14.092829 0.47256029
19.046482 -14.057079 0.47256029
19.051363 -14.02066 0.47256029
19.065065 -13.990116 0.43514812
19.063166 -13.952177 0.43514812
19.057489 -13.914617 0.43514812
19.048092 -13.877811 0.43514812
19.035067 -13.842127 0.43514812
19.018543 -13.807922 0.43514812
18.998688 -13.775537 0.43514812
18.975698 -13.745297 0.43514812
18.949806 -13.717503 0.43514812
18.921267 -13.692432 0.43514812
18.890368 -13.670336 0.43514812
18.857418 -13.651435 0.43514812
18.822744 -13.635918 0.43514812
18.786695 -13.62394 0.43514812
18.749632 -13.615621 0.43514812
18.711922 -13.611043 0.43514812
18.673943 -13.610253 0.43514812
18.636076 -13.613258 0.43514812
18.598698 -13.620029 0.43514812
18.562181 -13.630498 0.43514812
18.526894 -13.64456 0.43514812
18.493185 -13.662075 0.43514812
18.461393 -13.682867 0.43514812
18.431837 -13.706729 0.43514812
18.404812 -13.733423 0.43514812
18.380585 -13.762682 0.43514812
18.3594 -13.794212 0.43514812
18.341469 -13.827701 0.43514812
18.326971 -13.862812 0.43514812
18.316051 -13.899195 0.43514812
18.308817 -13.936486 0.43514812
18.305344 -13.974314 0.43514812
18.305662 -14.0123 0.43514812
18.309772 -14.050063 0.43514812
18.317631 -14.087228 0.43514812
18.329163 -14.123423 0.43514812
18.344248 -14.158284 0.43514812
18.36274 -14.191466 0.43514812
18.384451 -14.222637 0.43514812
18.409166 -14.251484 0.43514812
18.436638 -14.277719 0.43514812
18.466591 -14.301082 0.43514812
18.498728 -14.321337 0.43514812
18.532724 -14.338282 0.43514812
18.568245 -14.351748 0.43514812
18.604931 -14.361602 0.43514812
18.642418 -14.367743 0.43514812
18.68033 -14.370112 0.43514812
18.71829 -14.368684 0.43514812
18.755919 -14.363473 0.43514812
18.792837 -14.354532 0.43514812
18.82868 -14.341949 0.43514812
18.863087 -14.325851 0.43514812
18.895716 -14.306399 0.43514812
18.926237 -14.283787 0.43514812
18.954351 -14.25824 0.43514812
18.979773 -14.230014 0.43514812
19.002251 -14.199391 0.43514812
19.021559 -14.166677 0.43514812
19.037504 -14.1322 0.43514812
19.049929 -14.096302 0.43514812
19.058706 -14.059343 0.43514812
19.063751 -14.021693 0.43514812
19.073698 -13.990116 0.39668182
19.071756 -13.951315 0.39668182
19.065952 -13.912902 0.39668182
19.056339 -13.875259 0.39668182
19.043018 -13.838765 0.39668182
19.026119 -13.803783 0.39668182
19.005814 -13.770662 0.39668182
18.982302 -13.739735 0.39668182
18.95582 -13.711309 0.39668182
18.926634 -13.685669 0.39668182
18.895033 -13.663071 0.39668182
18.861334 -13.64374 0.39668182
18.825872 -13.627871 0.39668182
18.789005 -13.615621 0.39668182
18.751099 -13.607112 0.39668182
18.712532 -13.60243 0.39668182
18.673691 -13.601623 0.39668182
18.634962 -13.604696 0.39668182
18.596735 -13.611621 0.39668182
18.559389 -13.622328 0.39668182
18.5233 -13.636709 0.39668182
18.488827 -13.654622 0.39668182
18.456314 -13.675886 0.39668182
18.426085 -13.700291 0.39668182
18.398445 -13.727592 0.39668182
18.373669 -13.757514 0.39668182
18.352001 -13.789762 0.39668182
18.333664 -13.824011 0.39668182
18.318836 -13.85992 0.39668182
18.307669 -13.897129 0.39668182
18.30027 -13.935268 0.39668182
18.296717 -13.973955 0.39668182
18.297043 -14.012803 0.39668182
18.301247 -14.051425 0.39668182
18.309284 -14.089434 0.39668182
18.321077 -14.126451 0.39668182
18.336506 -14.162106 0.39668182
18.355417 -14.196041 0.39668182
18.377623 -14.22792 0.39668182
18.402899 -14.257422 0.39668182
18.430994 -14.284254 0.39668182
18.461628 -14.308146 0.39668182
18.494495 -14.328862 0.39668182
18.529264 -14.346192 0.39668182
18.565592 -14.359964 0.39668182
18.603111 -14.370042 0.39668182
18.641449 -14.376323 0.39668182
18.680223 -14.378745 0.39668182
18.719046 -14.377285 0.39668182
18.757528 -14.371956 0.39668182
18.795286 -14.362811 0.39668182
18.831944 -14.349943 0.39668182
18.867132 -14.333479 0.39668182
18.900501 -14.313585 0.39668182
18.931719 -14.290459 0.39668182
18.96047 -14.264332 0.39668182
18.986469 -14.235465 0.39668182
19.009459 -14.204146 0.39668182
19.029203 -14.17069 0.39668182
19.045511 -14.135427 0.39668182
19.058218 -14.098715 0.39668182
19.067196 -14.060917 0.39668182
19.072355 -14.022411 0.39668182
19.078449 -13.990116 0.35754573
19.076485 -13.950841 0.35754573
19.070608 -13.911958 0.35754573
19.060879 -13.873856 0.35754573
19.047394 -13.836915 0.35754573
19.030289 -13.801505 0.35754573
19.009735 -13.767981 0.35754573
18.985935 -13.736674 0.35754573
18.959131 -13.707901 0.35754573
18.929586 -13.681948 0.35754573
18.8976 -13.659073 0.35754573
18.863489 -13.639506 0.35754573
18.827595 -13.623443 0.35754573
18.790276 -13.611043 0.35754573
18.751905 -13.60243 0.35754573
18.712868 -13.597692 0.35754573
18.673552 -13.596874 0.35754573
18.63435 -13.599985 0.35754573
18.595655 -13.606995 0.35754573
