# .PCD v0.7 - Point Cloud Data file format
VERSION 0.7
FIELDS x y z
SIZE 4 4 4
TYPE F F F
COUNT 1 1 1
WIDTH 1559
HEIGHT 1
VIEWPOINT 0 0 0 1 0 0 0
POINTS 1559
DATA ascii
18.146345 9.9411535 1.2910537
18.146345 9.9411535 1.3910537
18.146345 9.9411535 1.4910537
18.146345 9.9411535 1.5910537
18.146345 9.9411535 1.6910537
18.146345 9.9411535 1.7910538
18.146345 9.9411535 1.8910538
18.146345 9.9411535 1.9910538
18.146345 9.9411535 2.0910537
18.146345 9.9411535 2.1910536
18.146345 10.041154 0.99105364
18.146345 10.041154 1.0910536
18.146345 10.041154 1.1910536
18.146345 10.041154 1.2910537
18.146345 10.041154 1.3910537
18.146345 10.041154 1.4910537
18.146345 10.041154 1.5910537
18.146345 10.041154 1.6910537
18.146345 10.041154 1.7910538
18.146345 10.041154 1.8910538
18.146345 10.041154 1.9910538
18.146345 10.041154 2.0910537
18.146345 10.041154 2.1910536
18.246346 9.1411505 0.99105364
18.246346 9.1411505 1.0910536
18.246346 9.1411505 1.1910536
18.246346 9.1411505 1.2910537
18.246346 9.1411505 1.3910537
18.246346 9.1411505 1.4910537
18.246346 9.1411505 1.5910537
18.246346 9.1411505 1.6910537
18.246346 9.1411505 1.7910538
18.246346 9.1411505 1.8910538
18.246346 9.1411505 1.9910538
18.246346 9.1411505 2.0910537
18.246346 9.1411505 2.1910536
18.246346 9.2411509 0.99105364
18.246346 9.2411509 1.0910536
18.246346 9.2411509 1.1910536
18.246346 9.2411509 1.2910537
18.246346 9.2411509 1.3910537
18.246346 9.2411509 1.4910537
18.246346 9.2411509 1.5910537
18.246346 9.2411509 1.6910537
18.246346 9.2411509 1.7910538
18.246346 9.2411509 1.8910538
18.246346 9.2411509 1.9910538
18.246346 9.2411509 2.0910537
18.246346 9.2411509 2.1910536
18.246346 9.3411512 0.99105364
18.246346 9.3411512 1.0910536
18.246346 9.3411512 1.1910536
18.246346 9.3411512 1.2910537
18.246346 9.3411512 1.3910537
18.246346 9.3411512 1.4910537
18.246346 9.3411512 1.5910537
18.246346 9.3411512 1.6910537
18.246346 9.3411512 1.7910538
18.246346 9.3411512 1.8910538
18.246346 9.3411512 1.9910538
18.246346 9.3411512 2.0910537
18.246346 9.3411512 2.1910536
18.246346 9.4411516 0.99105364
18.246346 9.4411516 1.0910536
18.246346 9.4411516 1.1910536
18.246346 9.4411516 1.2910537
18.246346 9.4411516 1.3910537
18.246346 9.4411516 1.4910537
18.246346 9.4411516 1.5910537
18.246346 9.4411516 1.6910537
18.246346 9.4411516 1.7910538
18.246346 9.4411516 1.8910538
18.246346 9.4411516 1.9910538
18.246346 9.4411516 2.0910537
18.246346 9.4411516 2.1910536
18.246346 9.541152 0.99105364
18.246346 9.541152 1.0910536
18.246346 9.541152 1.1910536
18.246346 9.541152 1.2910537
18.246346 9.541152 1.3910537
18.246346 9.541152 1.4910537
18.246346 9.541152 1.5910537
18.246346 9.541152 1.6910537
18.246346 9.541152 1.7910538
18.246346 9.541152 1.8910538
18.246346 9.541152 1.9910538
18.246346 9.541152 2.0910537
18.246346 9.541152 2.1910536
18.246346 9.6411524 0.99105364
18.246346 9.6411524 1.0910536
18.246346 9.6411524 1.1910536
18.246346 9.6411524 1.2910537
18.246346 9.6411524 1.3910537
18.246346 9.6411524 1.4910537
18.246346 9.6411524 1.5910537
18.246346 9.6411524 1.6910537
18.246346 9.6411524 1.7910538
18.246346 9.6411524 1.8910538
18.246346 9.6411524 1.9910538
18.246346 9.6411524 2.0910537
18.246346 9.6411524 2.1910536
18.246346 9.7411528 0.99105364
18.246346 9.7411528 1.0910536
18.246346 9.7411528 1.1910536
18.246346 9.7411528 1.2910537
18.246346 9.7411528 1.3910537
18.246346 9.7411528 1.4910537
18.246346 9.7411528 1.5910537
18.246346 9.7411528 1.6910537
18.246346 9.7411528 1.7910538
18.246346 9.7411528 1.8910538
18.246346 9.7411528 1.9910538
18.246346 9.7411528 2.0910537
18.246346 9.7411528 2.1910536
18.246346 9.8411531 0.99105364
18.246346 9.8411531 1.0910536
18.246346 9.8411531 1.1910536
18.246346 9.8411531 1.2910537
18.246346 9.8411531 1.3910537
18.246346 9.8411531 1.4910537
18.246346 9.8411531 1.5910537
18.246346 9.8411531 1.6910537
18.246346 9.8411531 1.7910538
18.246346 9.8411531 1.8910538
18.246346 9.8411531 1.9910538
18.246346 9.8411531 2.0910537
18.246346 9.8411531 2.1910536
18.246346 9.9411535 0.99105364
18.246346 9.9411535 1.0910536
18.246346 9.9411535 1.1910536
18.246346 9.9411535 1.2910537
18.246346 9.9411535 1.3910537
18.246346 9.9411535 1.4910537
18.246346 9.9411535 1.5910537
18.246346 9.9411535 1.6910537
18.246346 9.9411535 1.7910538
18.246346 9.9411535 1.8910538
18.246346 9.9411535 1.9910538
18.246346 9.9411535 2.0910537
18.246346 9.9411535 2.1910536
18.246346 10.041154 0.99105364
18.246346 10.041154 1.0910536
18.246346 10.041154 1.1910536
18.246346 10.041154 1.2910537
18.246346 10.041154 1.3910537
18.246346 10.041154 1.4910537
18.246346 10.041154 1.5910537
18.246346 10.041154 1.6910537
18.246346 10.041154 1.7910538
18.246346 10.041154 1.8910538
18.246346 10.041154 1.9910538
18.246346 10.041154 2.0910537
18.246346 10.041154 2.1910536
10.734423 -4.0616961 2.1271193
10.734423 -4.0616961 2.1271193
10.734423 -4.0616961 2.1271193
10.734423 -4.0616961 2.1271193
10.734423 -4.0616961 2.1271193
10.734423 -4.0616961 2.1271193
10.734423 -4.0616961 2.1271193
10.734423 -4.0616961 2.1271193
10.734423 -4.0616961 2.1271193
10.734423 -4.0616961 2.1271193
10.734423 -4.0616961 2.1271193
10.734423 -4.0616961 2.1271193
10.734423 -4.0616961 2.1271193
10.734423 -4.0616961 2.1271193
10.734423 -4.0616961 2.1271193
10.734423 -4.0616961 2.1271193
10.734423 -4.0616961 2.1271193
10.734423 -4.0616961 2.1271193
10.734423 -4.0616961 2.1271193
10.734423 -4.0616961 2.1271193
10.734423 -4.0616961 2.1271193
10.734423 -4.0616961 2.1271193
10.734423 -4.0616961 2.1271193
10.734423 -4.0616961 2.1271193
10.734423 -4.0616961 2.1271193
10.734423 -4.0616961 2.1271193
10.734423 -4.0616961 2.1271193
10.734423 -4.0616961 2.1271193
10.734423 -4.0616961 2.1271193
10.734423 -4.0616961 2.1271193
10.734423 -4.0616961 2.1271193
10.734423 -4.0616961 2.1271193
10.734423 -4.0616961 2.1271193
10.734423 -4.0616961 2.1271193
10.734423 -4.0616961 2.1271193
10.734423 -4.0616961 2.1271193
10.734423 -4.0616961 2.1271193
10.734423 -4.0616961 2.1271193
10.734423 -4.0616961 2.1271193
10.734423 -4.0616961 2.1271193
10.734423 -4.0616961 2.1271193
10.734423 -4.0616961 2.1271193
10.734423 -4.0616961 2.1271193
10.734423 -4.0616961 2.1271193
10.734423 -4.0616961 2.1271193
10.734423 -4.0616961 2.1271193
10.734423 -4.0616961 2.1271193
10.734423 -4.0616961 2.1271193
10.734423 -4.0616961 2.1271193
10.734423 -4.0616961 2.1271193
10.734423 -4.0616961 2.1271193
10.734423 -4.0616961 2.1271193
10.734423 -4.0616961 2.1271193
10.734423 -4.0616961 2.1271193
10.734423 -4.0616961 2.1271193
10.734423 -4.0616961 2.1271193
10.734423 -4.0616961 2.1271193
10.734423 -4.0616961 2.1271193
10.734423 -4.0616961 2.1271193
10.734423 -4.0616961 2.1271193
10.734423 -4.0616961 2.1271193
10.734423 -4.0616961 2.1271193
10.734423 -4.0616961 2.1271193
10.777006 -4.0616961 2.1249883
10.776793 -4.0574446 2.1249883
10.776157 -4.053236 2.1249883
10.775105 -4.0491118 2.1249883
10.773644 -4.0451131 2.1249883
10.771793 -4.0412803 2.1249883
10.769568 -4.0376515 2.1249883
10.766993 -4.0342631 2.1249883
10.764091 -4.0311484 2.1249883
10.760893 -4.0283394 2.1249883
10.757431 -4.0258632 2.1249883
10.753738 -4.0237451 2.1249883
10.749853 -4.0220065 2.1249883
10.745813 -4.0206642 2.1249883
10.74166 -4.019732 2.1249883
10.737435 -4.0192194 2.1249883
10.733179 -4.0191307 2.1249883
10.728936 -4.0194674 2.1249883
10.724748 -4.020226 2.1249883
10.720655 -4.021399 2.1249883
10.716702 -4.022975 2.1249883
10.712925 -4.0249376 2.1249883
10.709362 -4.0272675 2.1249883
10.70605 -4.0299411 2.1249883
10.703022 -4.0329323 2.1249883
10.700307 -4.036211 2.1249883
10.697933 -4.0397444 2.1249883
10.695924 -4.0434966 2.1249883
10.6943 -4.047431 2.1249883
10.693076 -4.0515079 2.1249883
10.692266 -4.0556865 2.1249883
10.691876 -4.0599256 2.1249883
10.691912 -4.0641818 2.1249883
10.692372 -4.0684133 2.1249883
10.693253 -4.072578 2.1249883
10.694545 -4.0766335 2.1249883
10.696236 -4.0805402 2.1249883
10.698308 -4.0842581 2.1249883
10.700741 -4.0877509 2.1249883
10.70351 -4.0909834 2.1249883
10.706588 -4.0939236 2.1249883
10.709945 -4.0965409 2.1249883
10.713546 -4.0988107 2.1249883
10.717355 -4.1007094 2.1249883
10.721335 -4.1022186 2.1249883
10.725446 -4.1033225 2.1249883
10.729647 -4.1040111 2.1249883
10.733895 -4.1042762 2.1249883
10.738149 -4.1041164 2.1249883
10.742365 -4.1035323 2.1249883
10.746502 -4.1025305 2.1249883
10.750518 -4.1011205 2.1249883
10.754374 -4.0993166 2.1249883
10.75803 -4.097137 2.1249883
10.76145 -4.0946031 2.1249883
10.7646 -4.0917406 2.1249883
10.767449 -4.0885777 2.1249883
10.769968 -4.0851464 2.1249883
10.772131 -4.0814805 2.1249883
10.773918 -4.0776172 2.1249883
10.775311 -4.0735946 2.1249883
10.776294 -4.0694532 2.1249883
10.776859 -4.0652347 2.1249883
10.819164 -4.0616961 2.1186168
10.818741 -4.053236 2.1186168
10.817475 -4.0448604 2.1186168
10.815379 -4.036653 2.1186168
10.812475 -4.0286961 2.1186168
10.80879 -4.0210686 2.1186168
10.804363 -4.0138474 2.1186168
10.799236 -4.0071039 2.1186168
10.793463 -4.000906 2.1186168
10.787099 -3.9953156 2.1186168
10.780209 -3.9903884 2.1186168
10.772861 -3.9861736 2.1186168
10.765129 -3.9827135 2.1186168
10.757091 -3.9800425 2.1186168
10.748826 -3.9781876 2.1186168
10.740417 -3.9771667 2.1186168
10.731948 -3.9769905 2.1186168
10.723504 -3.9776607 2.1186168
10.715169 -3.9791706 2.1186168
10.707026 -3.9815052 2.1186168
10.699158 -3.9846408 2.1186168
10.691641 -3.9885464 2.1186168
10.684552 -3.9931827 2.1186168
10.677961 -3.9985037 2.1186168
10.671935 -4.004456 2.1186168
10.666533 -4.0109806 2.1186168
10.661809 -4.0180116 2.1186168
10.65781 -4.0254793 2.1186168
10.654577 -4.0333085 2.1186168
10.652143 -4.0414214 2.1186168
10.650529 -4.0497375 2.1186168
10.649755 -4.0581722 2.1186168
10.649825 -4.0666428 2.1186168
10.650742 -4.0750637 2.1186168
10.652494 -4.0833511 2.1186168
10.655066 -4.0914221 2.1186168
10.65843 -4.099196 2.1186168
10.662553 -4.106595 2.1186168
10.667395 -4.1135459 2.1186168
10.672906 -4.1199784 2.1186168
10.679031 -4.1258287 2.1186168
10.685711 -4.1310382 2.1186168
10.692877 -4.1355548 2.1186168
10.700459 -4.1393332 2.1186168
10.708379 -4.1423364 2.1186168
10.716559 -4.1445336 2.1186168
10.724918 -4.1459031 2.1186168
10.733373 -4.146431 2.1186168
10.741838 -4.1461124 2.1186168
10.750228 -4.1449509 2.1186168
10.75846 -4.1429567 2.1186168
10.766453 -4.140151 2.1186168
10.774125 -4.1365614 2.1186168
10.781401 -4.1322241 2.1186168
10.788207 -4.1271815 2.1186168
10.794477 -4.1214848 2.1186168
10.800145 -4.115191 2.1186168
10.805158 -4.1083622 2.1186168
10.809463 -4.1010675 2.1186168
10.813019 -4.093379 2.1186168
10.815789 -4.0853744 2.1186168
10.817746 -4.0771332 2.1186168
10.818871 -4.0687375 2.1186168
10.860476 -4.0616961 2.1080682
10.859846 -4.0491118 2.1080682
10.857963 -4.036653 2.1080682
10.854846 -4.0244451 2.1080682
10.850525 -4.0126085 2.1080682
10.845044 -4.0012631 2.1080682
10.838459 -3.9905212 2.1080682
10.830833 -3.9804904 2.1080682
10.822245 -3.9712713 2.1080682
10.812778 -3.9629555 2.1080682
10.802529 -3.955626 2.1080682
10.7916 -3.9493568 2.1080682
10.780099 -3.9442098 2.1080682
10.768142 -3.9402366 2.1080682
10.755848 -3.9374771 2.1080682
10.74334 -3.9359589 2.1080682
10.730742 -3.9356968 2.1080682
10.718182 -3.9366937 2.1080682
10.705783 -3.9389396 2.1080682
10.693671 -3.9424121 2.1080682
10.681966 -3.9470763 2.1080682
10.670785 -3.9528859 2.1080682
10.66024 -3.9597826 2.1080682
10.650436 -3.9676976 2.1080682
10.641472 -3.976552 2.1080682
10.633436 -3.9862568 2.1080682
10.62641 -3.9967155 2.1080682
10.620461 -4.0078235 2.1080682
10.615653 -4.0194697 2.1080682
10.612031 -4.031538 2.1080682
10.609632 -4.0439072 2.1080682
10.608479 -4.0564547 2.1080682
10.608584 -4.0690541 2.1080682
10.609948 -4.0815802 2.1080682
10.612555 -4.0939078 2.1080682
10.61638 -4.1059132 2.1080682
10.621384 -4.1174769 2.1080682
10.627517 -4.1284833 2.1080682
10.634719 -4.1388226 2.1080682
10.642917 -4.1483908 2.1080682
10.652029 -4.157093 2.1080682
10.661964 -4.1648421 2.1080682
10.672624 -4.1715608 2.1080682
10.683901 -4.1771812 2.1080682
10.695683 -4.1816483 2.1080682
10.707851 -4.1849165 2.1080682
10.720285 -4.1869535 2.1080682
10.732861 -4.1877394 2.1080682
10.745452 -4.1872654 2.1080682
10.757933 -4.1855373 2.1080682
10.770179 -4.1825714 2.1080682
10.782067 -4.1783977 2.1080682
10.79348 -4.1730585 2.1080682
10.804303 -4.1666059 2.1080682
10.814427 -4.1591053 2.1080682
10.823752 -4.1506319 2.1080682
10.832185 -4.1412692 2.1080682
10.839641 -4.1311121 2.1080682
10.846045 -4.1202607 2.1080682
10.851334 -4.1088247 2.1080682
10.855454 -4.0969176 2.1080682
10.858367 -4.0846586 2.1080682
10.86004 -4.0721703 2.1080682
10.900528 -4.0616961 2.0934482
10.899697 -4.0451131 2.0934482
10.897217 -4.0286961 2.0934482
10.893108 -4.0126085 2.0934482
10.887415 -3.9970117 2.0934482
10.880194 -3.9820611 2.0934482
10.871515 -3.9679062 2.0934482
10.861466 -3.9546883 2.0934482
10.850149 -3.9425397 2.0934482
10.837675 -3.9315817 2.0934482
10.824169 -3.9219236 2.0934482
10.809767 -3.9136622 2.0934482
10.794612 -3.9068799 2.0934482
10.778855 -3.9016442 2.0934482
10.762655 -3.8980081 2.0934482
10.746173 -3.8960073 2.0934482
10.729572 -3.8956621 2.0934482
10.713021 -3.8969758 2.0934482
10.696683 -3.8999352 2.0934482
10.680722 -3.904511 2.0934482
10.665298 -3.9106574 2.0934482
10.650565 -3.9183128 2.0934482
10.63667 -3.9274008 2.0934482
10.623751 -3.9378307 2.0934482
10.611938 -3.9494984 2.0934482
10.601349 -3.9622869 2.0934482
10.59209 -3.9760687 2.0934482
10.584252 -3.9907062 2.0934482
10.577915 -4.006053 2.0934482
10.573142 -4.0219555 2.0934482
10.569981 -4.0382552 2.0934482
10.568461 -4.0547891 2.0934482
10.568601 -4.0713921 2.0934482
10.570397 -4.0878983 2.0934482
10.573833 -4.1041427 2.0934482
10.578873 -4.1199627 2.0934482
10.585466 -4.1352005 2.0934482
10.593549 -4.149704 2.0934482
10.603039 -4.1633286 2.0934482
10.613842 -4.1759372 2.0934482
10.625849 -4.1874046 2.0934482
10.638942 -4.1976156 2.0934482
10.652987 -4.2064691 2.0934482
10.667848 -4.2138758 2.0934482
10.683372 -4.2197618 2.0934482
10.699409 -4.2240686 2.0934482
10.715794 -4.2267528 2.0934482
10.732365 -4.227788 2.0934482
10.748957 -4.2271638 2.0934482
10.765403 -4.2248864 2.0934482
10.78154 -4.2209783 2.0934482
10.797206 -4.2154784 2.0934482
10.812245 -4.2084422 2.0934482
10.826507 -4.1999397 2.0934482
10.839848 -4.1900563 2.0934482
10.852136 -4.1788902 2.0934482
10.863248 -4.166553 2.0934482
10.873073 -4.1531682 2.0934482
10.881512 -4.1388693 2.0934482
10.888481 -4.1237993 2.0934482
10.893911 -4.108109 2.0934482
10.897748 -4.0919547 2.0934482
10.899953 -4.0754981 2.0934482
10.93892 -4.0616961 2.0749025
10.937898 -4.0412803 2.0749025
10.934843 -4.0210686 2.0749025
10.929787 -4.0012631 2.0749025
10.922777 -3.9820611 2.0749025
10.913886 -3.963655 2.0749025
10.903201 -3.9462283 2.0749025
10.890831 -3.9299555 2.0749025
10.876897 -3.9149988 2.0749025
10.86154 -3.9015079 2.0749025
10.844913 -3.8896177 2.0749025
10.827182 -3.8794467 2.0749025
10.808524 -3.8710968 2.0749025
10.789125 -3.8646512 2.0749025
10.76918 -3.8601744 2.0749025
10.748888 -3.8577113 2.0749025
10.728452 -3.8572862 2.0749025
10.708075 -3.8589034 2.0749025
10.687961 -3.8625472 2.0749025
10.668311 -3.8681805 2.0749025
10.649322 -3.8757474 2.0749025
10.631183 -3.8851724 2.0749025
10.614076 -3.8963609 2.0749025
10.598171 -3.9092016 2.0749025
10.583628 -3.9235659 2.0749025
10.570591 -3.9393103 2.0749025
10.559192 -3.9562774 2.0749025
10.549542 -3.974298 2.0749025
10.541741 -3.993192 2.0749025
10.535865 -4.0127702 2.0749025
10.531972 -4.0328374 2.0749025
10.530103 -4.0531926 2.0749025
10.530274 -4.0736332 2.0749025
10.532486 -4.0939546 2.0749025
10.536716 -4.1139531 2.0749025
10.54292 -4.13343 2.0749025
10.551038 -4.1521897 2.0749025
10.560988 -4.1700459 2.0749025
10.572672 -4.1868191 2.0749025
10.585972 -4.202342 2.0749025
10.600754 -4.2164598 2.0749025
10.616873 -4.2290311 2.0749025
10.634166 -4.2399306 2.0749025
10.65246 -4.2490492 2.0749025
10.671574 -4.2562957 2.0749025
10.691316 -4.2615981 2.0749025
10.711488 -4.2649031 2.0749025
10.731889 -4.2661772 2.0749025
10.752316 -4.265409 2.0749025
10.772564 -4.2626047 2.0749025
10.79243 -4.2577934 2.0749025
10.811718 -4.2510228 2.0749025
10.830233 -4.2423601 2.0749025
10.84779 -4.2318926 2.0749025
10.864215 -4.2197247 2.0749025
10.879343 -4.2059774 2.0749025
10.893023 -4.1907887 2.0749025
10.905119 -4.1743102 2.0749025
10.915508 -4.1567063 2.0749025
10.924089 -4.1381536 2.0749025
10.930775 -4.1188364 2.0749025
10.935498 -4.0989485 2.0749025
10.938212 -4.0786881 2.0749025
10.975268 -4.0616961 2.0526168
10.974066 -4.0376515 2.0526168
10.970468 -4.0138474 2.0526168
10.964512 -3.9905212 2.0526168
10.956257 -3.9679062 2.0526168
10.945785 -3.9462283 2.0526168
10.933202 -3.9257042 2.0526168
10.918632 -3.9065387 2.0526168
10.902222 -3.8889236 2.0526168
10.884135 -3.873035 2.0526168
10.864552 -3.8590312 2.0526168
10.84367 -3.8470523 2.0526168
10.821695 -3.837218 2.0526168
10.798849 -3.8296268 2.0526168
10.775358 -3.8243544 2.0526168
10.751459 -3.8214533 2.0526168
10.72739 -3.8209527 2.0526168
10.703391 -3.8228576 2.0526168
10.679702 -3.8271487 2.0526168
10.65656 -3.8337834 2.0526168
10.634195 -3.8426955 2.0526168
10.612832 -3.8537955 2.0526168
10.592685 -3.8669729 2.0526168
10.573953 -3.8820958 2.0526168
10.556825 -3.8990135 2.0526168
10.541471 -3.9175563 2.0526168
10.528045 -3.9375396 2.0526168
10.516681 -3.9587631 2.0526168
10.507492 -3.9810154 2.0526168
10.500571 -4.0040736 2.0526168
10.495987 -4.0277076 2.0526168
10.493785 -4.0516815 2.0526168
10.493987 -4.0757551 2.0526168
10.496593 -4.0996881 2.0526168
10.501574 -4.1232419 2.0526168
10.508881 -4.1461806 2.0526168
10.518442 -4.1682749 2.0526168
10.530161 -4.1893048 2.0526168
10.543921 -4.2090592 2.0526168
10.559585 -4.2273417 2.0526168
10.576995 -4.2439685 2.0526168
10.595979 -4.2587748 2.0526168
10.616345 -4.2716112 2.0526168
10.637892 -4.282351 2.0526168
10.660402 -4.2908854 2.0526168
10.683653 -4.2971301 2.0526168
10.707411 -4.3010225 2.0526168
10.731439 -4.3025236 2.0526168
10.755496 -4.3016186 2.0526168
10.779343 -4.298316 2.0526168
10.802741 -4.2926493 2.0526168
10.825457 -4.2846751 2.0526168
10.847262 -4.2744727 2.0526168
10.867941 -4.2621446 2.0526168
10.887285 -4.2478137 2.0526168
10.905103 -4.2316232 2.0526168
10.921214 -4.2137346 2.0526168
10.935459 -4.1943269 2.0526168
10.947696 -4.1735945 2.0526168
10.957802 -4.1517434 2.0526168
10.965675 -4.128993 2.0526168
10.971239 -4.1055698 2.0526168
10.974436 -4.0817084 2.0526168
11.009212 -4.0616961 2.0268135
11.007838 -4.0342631 2.0268135
11.003734 -4.0071039 2.0268135
10.996938 -3.9804904 2.0268135
10.987519 -3.9546883 2.0268135
10.975573 -3.9299555 2.0268135
10.961215 -3.9065387 2.0268135
10.944592 -3.8846724 2.0268135
10.92587 -3.8645749 2.0268135
10.905234 -3.8464468 2.0268135
10.882892 -3.8304694 2.0268135
10.859066 -3.8168025 2.0268135
10.833994 -3.8055823 2.0268135
10.807928 -3.7969213 2.0268135
10.781128 -3.7909057 2.0268135
10.75386 -3.7875957 2.0268135
10.726398 -3.7870247 2.0268135
10.699018 -3.7891979 2.0268135
10.67199 -3.7940938 2.0268135
10.645586 -3.8016636 2.0268135
10.62007 -3.8118315 2.0268135
10.595696 -3.824496 2.0268135
10.572709 -3.8395305 2.0268135
10.551337 -3.8567848 2.0268135
10.531796 -3.8760865 2.0268135
10.514277 -3.8972428 2.0268135
10.49896 -3.920042 2.0268135
10.485994 -3.9442568 2.0268135
10.475511 -3.969645 2.0268135
10.467614 -3.9959528 2.0268135
10.462384 -4.0229177 2.0268135
10.459872 -4.0502701 2.0268135
10.460103 -4.0777364 2.0268135
10.463075 -4.1050425 2.0268135
10.468758 -4.1319156 2.0268135
10.477095 -4.1580868 2.0268135
10.488004 -4.1832952 2.0268135
10.501374 -4.2072887 2.0268135
10.517074 -4.2298274 2.0268135
10.534945 -4.2506862 2.0268135
10.554809 -4.2696562 2.0268135
10.576468 -4.2865491 2.0268135
10.599704 -4.3011947 2.0268135
10.624288 -4.313448 2.0268135
10.649971 -4.3231854 2.0268135
10.676497 -4.3303099 2.0268135
10.703604 -4.3347511 2.0268135
10.731018 -4.3364635 2.0268135
10.758466 -4.3354306 2.0268135
10.785673 -4.3316631 2.0268135
10.812369 -4.3251977 2.0268135
10.838286 -4.3160996 2.0268135
10.863165 -4.3044596 2.0268135
10.886758 -4.2903938 2.0268135
10.908829 -4.2740436 2.0268135
10.929156 -4.2555709 2.0268135
10.947538 -4.2351613 2.0268135
10.963792 -4.2130189 2.0268135
10.977753 -4.189364 2.0268135
10.989283 -4.164434 2.0268135
10.998266 -4.1384773 2.0268135
11.004614 -4.111753 2.0268135
11.008261 -4.0845289 2.0268135
11.040408 -4.0616961 1.9977506
11.038879 -4.0311484 1.9977506
11.034308 -4.000906 1.9977506
11.026742 -3.9712713 1.9977506
11.016253 -3.9425397 1.9977506
11.00295 -3.9149988 1.9977506
10.986963 -3.8889236 1.9977506
10.968453 -3.8645749 1.9977506
10.947605 -3.8421955 1.9977506
10.924626 -3.8220093 1.9977506
10.899747 -3.8042183 1.9977506
10.873217 -3.7889996 1.9977506
10.845299 -3.7765057 1.9977506
10.816274 -3.7668612 1.9977506
10.78643 -3.7601628 1.9977506
10.756067 -3.7564771 1.9977506
10.725488 -3.755841 1.9977506
10.694998 -3.7582612 1.9977506
10.664902 -3.7637129 1.9977506
10.635501 -3.7721419 1.9977506
10.607088 -3.7834644 1.9977506
10.579947 -3.7975667 1.9977506
10.55435 -3.8143079 1.9977506
10.530552 -3.8335211 1.9977506
10.508791 -3.8550141 1.9977506
10.489285 -3.8785722 1.9977506
10.472227 -3.90396 1.9977506
10.457789 -3.9309239 1.9977506
10.446116 -3.9591944 1.9977506
10.437324 -3.9884892 1.9977506
10.431499 -4.0185151 1.9977506
10.428702 -4.0489726 1.9977506
10.428959 -4.0795574 1.9977506
10.432268 -4.1099634 1.9977506
10.438597 -4.1398878 1.9977506
10.447881 -4.1690302 1.9977506
10.460028 -4.1971006 1.9977506
10.474916 -4.2238178 1.9977506
10.492398 -4.2489152 1.9977506
10.512298 -4.2721419 1.9977506
10.534417 -4.2932663 1.9977506
10.558535 -4.3120766 1.9977506
10.58441 -4.3283854 1.9977506
10.611784 -4.3420291 1.9977506
10.640383 -4.3528724 1.9977506
10.669922 -4.360806 1.9977506
10.700105 -4.3657508 1.9977506
10.730631 -4.3676581 1.9977506
10.761195 -4.366508 1.9977506
10.791492 -4.3623123 1.9977506
10.821218 -4.355113 1.9977506
10.850078 -4.3449821 1.9977506
10.877781 -4.3320208 1.9977506
10.904053 -4.3163581 1.9977506
10.928629 -4.298151 1.9977506
10.951264 -4.2775817 1.9977506
10.971734 -4.2548552 1.9977506
10.989832 -4.2301984 1.9977506
11.005379 -4.2038584 1.9977506
11.018217 -4.1760979 1.9977506
11.02822 -4.1471939 1.9977506
11.035288 -4.1174359 1.9977506
11.03935 -4.0871215 1.9977506
11.068547 -4.0616961 1.9657184
11.066878 -4.0283394 1.9657184
11.061888 -3.9953156 1.9657184
11.053624 -3.9629555 1.9657184
11.042172 -3.9315817 1.9657184
11.027645 -3.9015081 1.9657184
11.010188 -3.873035 1.9657184
10.989976 -3.8464468 1.9657184
10.96721 -3.8220093 1.9657184
10.942118 -3.7999668 1.9657184
10.914951 -3.7805395 1.9657184
10.885981 -3.7639213 1.9657184
10.855495 -3.7502785 1.9657184
10.823801 -3.739747 1.9657184
10.791213 -3.7324326 1.9657184
10.758058 -3.7284081 1.9657184
10.724667 -3.7277136 1.9657184
10.691373 -3.730356 1.9657184
10.658508 -3.7363093 1.9657184
10.626404 -3.7455134 1.9657184
10.595378 -3.7578771 1.9657184
10.565741 -3.7732763 1.9657184
10.537789 -3.7915573 1.9657184
10.511804 -3.8125372 1.9657184
10.488041 -3.8360069 1.9657184
10.466741 -3.8617315 1.9657184
10.448114 -3.8894541 1.9657184
10.432349 -3.9188976 1.9657184
10.419602 -3.9497681 1.9657184
10.410002 -3.9817567 1.9657184
10.403642 -4.014544 1.9657184
10.400587 -4.0478024 1.9657184
10.400867 -4.0812001 1.9657184
10.404481 -4.1144023 1.9657184
10.411391 -4.1470785 1.9657184
10.421529 -4.1789012 1.9657184
10.434793 -4.2095528 1.9657184
10.451051 -4.2387271 1.9657184
10.47014 -4.2661328 1.9657184
10.49187 -4.2914953 1.9657184
10.516024 -4.3145623 1.9657184
10.542359 -4.3351026 1.9657184
10.570614 -4.352911 1.9657184
10.600505 -4.3678098 1.9657184
10.631735 -4.3796501 1.9657184
10.66399 -4.3883133 1.9657184
10.696949 -4.393713 1.9657184
10.730283 -4.3957953 1.9657184
10.763658 -4.3945398 1.9657184
10.796741 -4.3899584 1.9657184
10.829201 -4.3820968 1.9657184
10.860714 -4.3710341 1.9657184
10.890965 -4.3568807 1.9657184
10.919652 -4.3397779 1.9657184
10.946488 -4.3198967 1.9657184
10.971207 -4.2974353 1.9657184
10.993558 -4.2726188 1.9657184
11.013321 -4.2456946 1.9657184
11.030296 -4.2169323 1.9657184
11.044316 -4.1866188 1.9657184
11.05524 -4.155057 1.9657184
11.062957 -4.1225624 1.9657184
11.067392 -4.0894594 1.9657184
11.093349 -4.0616961 1.9310369
11.091556 -4.0258632 1.9310369
11.086194 -3.9903884 1.9310369
11.077318 -3.955626 1.9310369
11.065016 -3.9219236 1.9310369
11.04941 -3.8896177 1.9310369
11.030657 -3.8590312 1.9310369
11.008945 -3.8304694 1.9310369
10.984488 -3.8042183 1.9310369
10.957535 -3.7805395 1.9310369
10.928351 -3.75967 1.9310369
10.89723 -3.7418184 1.9310369
10.864482 -3.7271628 1.9310369
10.830435 -3.7158499 1.9310369
10.795428 -3.7079923 1.9310369
10.759812 -3.7036691 1.9310369
10.723942 -3.7029231 1.9310369
10.688177 -3.7057617 1.9310369
10.652874 -3.7121568 1.9310369
10.618385 -3.7220442 1.9310369
10.585056 -3.7353253 1.9310369
10.55322 -3.7518678 1.9310369
10.523194 -3.7715056 1.9310369
10.495278 -3.7940431 1.9310369
10.469753 -3.8192546 1.9310369
10.446872 -3.8468888 1.9310369
10.426863 -3.8766689 1.9310369
10.409927 -3.908298 1.9310369
10.396235 -3.9414599 1.9310369
10.385921 -3.9758229 1.9310369
10.379088 -4.011044 1.9310369
10.375807 -4.0467715 1.9310369
10.376108 -4.0826478 1.9310369
10.379991 -4.1183147 1.9310369
10.387413 -4.1534162 1.9310369
10.398304 -4.1876011 1.9310369
10.412553 -4.2205276 1.9310369
10.430017 -4.2518678 1.9310369
10.450523 -4.2813072 1.9310369
10.473866 -4.3085527 1.9310369
10.499812 -4.3333321 1.9310369
10.528103 -4.3553967 1.9310369
10.558455 -4.374527 1.9310369
10.590565 -4.3905315 1.9310369
10.624112 -4.4032507 1.9310369
10.658762 -4.4125571 1.9310369
10.694167 -4.4183578 1.9310369
10.729976 -4.4205947 1.9310369
10.765827 -4.4192457 1.9310369
10.801366 -4.4143243 1.9310369
10.836236 -4.4058795 1.9310369
10.870088 -4.3939953 1.9310369
10.902585 -4.3787913 1.9310369
10.933401 -4.3604193 1.9310369
10.96223 -4.3390622 1.9310369
10.988782 -4.3149338 1.9310369
11.012793 -4.2882748 1.9310369
11.034022 -4.2593522 1.9310369
11.052258 -4.2284551 1.9310369
11.067319 -4.1958914 1.9310369
11.079053 -4.1619868 1.9310369
11.087343 -4.12708 1.9310369
11.092108 -4.0915203 1.9310369
11.114564 -4.0616961 1.8940527
11.112664 -4.0237451 1.8940527
11.106986 -3.9861736 1.8940527
11.097586 -3.9493568 1.8940527
11.084556 -3.9136622 1.8940527
11.068027 -3.8794467 1.8940527
11.048166 -3.8470523 1.8940527
11.02517 -3.8168025 1.8940527
10.999269 -3.7889996 1.8940527
10.970722 -3.7639213 1.8940527
10.939814 -3.7418184 1.8940527
10.906853 -3.7229116 1.8940527
10.872169 -3.7073898 1.8940527
10.83611 -3.6954081 1.8940527
10.799034 -3.6870861 1.8940527
10.761312 -3.6825073 1.8940527
10.723323 -3.6817172 1.8940527
10.685444 -3.6847236 1.8940527
10.648054 -3.6914966 1.8940527
10.611526 -3.7019687 1.8940527
10.576228 -3.7160349 1.8940527
10.54251 -3.7335548 1.8940527
10.510709 -3.7543535 1.8940527
10.481144 -3.778223 1.8940527
10.454109 -3.8049247 1.8940527
10.429875 -3.8341923 1.8940527
10.408684 -3.8657327 1.8940527
10.390748 -3.8992312 1.8940527
10.376245 -3.9343531 1.8940527
10.365322 -3.9707472 1.8940527
10.358086 -4.0080504 1.8940527
10.35461 -4.0458894 1.8940527
10.35493 -4.0838861 1.8940527
10.359041 -4.1216612 1.8940527
10.366903 -4.1588373 1.8940527
10.378437 -4.1950426 1.8940527
10.393528 -4.2299156 1.8940527
10.412024 -4.2631083 1.8940527
10.433743 -4.2942877 1.8940527
10.458466 -4.323144 1.8940527
10.485946 -4.3493872 1.8940527
10.515908 -4.3727565 1.8940527
10.548054 -4.3930173 1.8940527
10.582062 -4.4099679 1.8940527
10.617592 -4.423439 1.8940527
10.65429 -4.4332952 1.8940527
10.691788 -4.4394388 1.8940527
10.729712 -4.4418077 1.8940527
10.767684 -4.4403791 1.8940527
10.805323 -4.4351668 1.8940527
10.842254 -4.4262228 1.8940527
10.878107 -4.4136367 1.8940527
10.912524 -4.3975339 1.8940527
10.945162 -4.3780756 1.8940527
10.975695 -4.3554564 1.8940527
11.003817 -4.3299017 1.8940527
11.029246 -4.3016672 1.8940527
11.05173 -4.2710352 1.8940527
11.071044 -4.2383113 1.8940527
11.086995 -4.2038231 1.8940527
11.099422 -4.1679144 1.8940527
11.108203 -4.1309447 1.8940527
11.113249 -4.0932832 1.8940527
11.13198 -4.0616961 1.8551354
11.129994 -4.0220065 1.8551354
11.124056 -3.9827135 1.8551354
11.114224 -3.9442098 1.8551354
11.100597 -3.9068799 1.8551354
11.083312 -3.8710968 1.8551354
11.062541 -3.837218 1.8551354
11.038491 -3.8055823 1.8551354
11.011404 -3.7765057 1.8551354
10.981548 -3.7502785 1.8551354
10.949224 -3.7271628 1.8551354
10.914753 -3.7073898 1.8551354
10.878481 -3.6911569 1.8551354
10.840769 -3.6786261 1.8551354
10.801994 -3.6699231 1.8551354
10.762545 -3.6651344 1.8551354
10.722815 -3.6643081 1.8551354
10.6832 -3.6674521 1.8551354
10.644096 -3.6745355 1.8551354
10.605896 -3.6854873 1.8551354
10.56898 -3.7001979 1.8551354
10.533717 -3.7185206 1.8551354
10.50046 -3.740272 1.8551354
10.46954 -3.7652352 1.8551354
10.441266 -3.7931604 1.8551354
10.415922 -3.8237689 1.8551354
10.39376 -3.8567545 1.8551354
10.375002 -3.8917878 1.8551354
10.359835 -3.9285188 1.8551354
10.348411 -3.9665804 1.8551354
10.340843 -4.0055923 1.8551354
10.337209 -4.0451651 1.8551354
10.337543 -4.0849028 1.8551354
10.341843 -4.1244087 1.8551354
10.350064 -4.1632881 1.8551354
10.362127 -4.2011523 1.8551354
10.37791 -4.2376227 1.8551354
10.397254 -4.272336 1.8551354
10.419967 -4.3049445 1.8551354
10.445823 -4.3351221 1.8551354
10.474561 -4.3625684 1.8551354
10.505897 -4.3870082 1.8551354
10.539515 -4.4081974 1.8551354
10.575081 -4.4259243 1.8551354
10.61224 -4.4400125 1.8551354
10.650619 -4.4503202 1.8551354
10.689835 -4.4567451 1.8551354
10.729497 -4.4592233 1.8551354
10.769208 -4.4577289 1.8551354
10.808571 -4.4522777 1.8551354
10.847194 -4.442924 1.8551354
10.884689 -4.4297609 1.8551354
10.920684 -4.4129205 1.8551354
10.954818 -4.392571 1.8551354
10.986749 -4.3689151 1.8551354
11.016159 -4.3421898 1.8551354
11.042754 -4.3126616 1.8551354
11.066268 -4.2806263 1.8551354
11.086467 -4.2464032 1.8551354
11.103148 -4.2103348 1.8551354
11.116145 -4.172781 1.8551354
11.125328 -4.1341176 1.8551354
11.130606 -4.0947304 1.8551354
11.145425 -4.0616961 1.8146737
11.143372 -4.0206642 1.8146737
11.137232 -3.9800425 1.8146737
11.127068 -3.9402366 1.8146737
11.112981 -3.9016445 1.8146737
11.095111 -3.8646512 1.8146737
11.073637 -3.8296268 1.8146737
11.048775 -3.7969213 1.8146737
11.02077 -3.7668612 1.8146737
10.989905 -3.739747 1.8146737
10.956488 -3.7158499 1.8146737
10.920852 -3.6954081 1.8146737
10.883352 -3.6786261 1.8146737
10.844365 -3.6656718 1.8146737
10.804279 -3.6566744 1.8146737
10.763495 -3.6517236 1.8146737
10.722422 -3.6508694 1.8146737
10.681467 -3.65412 1.8146737
10.641042 -3.6614428 1.8146737
10.60155 -3.672765 1.8146737
10.563385 -3.687973 1.8146737
10.52693 -3.7069154 1.8146737
10.492548 -3.7294025 1.8146737
10.460582 -3.7552097 1.8146737
10.431353 -3.7840793 1.8146737
10.405151 -3.8157227 1.8146737
10.382239 -3.849824 1.8146737
10.362847 -3.8860419 1.8146737
10.347168 -3.924015 1.8146737
10.335357 -3.9633639 1.8146737
10.327534 -4.003695 1.8146737
10.323776 -4.0446062 1.8146737
10.324121 -4.0856876 1.8146737
10.328567 -4.1265292 1.8146737
10.337067 -4.1667237 1.8146737
10.349537 -4.2058682 1.8146737
10.365853 -4.2435722 1.8146737
10.385852 -4.2794595 1.8146737
10.409333 -4.3131704 1.8146737
10.436063 -4.3443689 1.8146737
10.465774 -4.3727431 1.8146737
10.498168 -4.3980093 1.8146737
10.532924 -4.4199152 1.8146737
10.569693 -4.438242 1.8146737
10.608108 -4.452806 1.8146737
10.647784 -4.4634628 1.8146737
10.688327 -4.4701047 1.8146737
10.72933 -4.4726663 1.8146737
10.770384 -4.4711218 1.8146737
10.811079 -4.465486 1.8146737
10.851007 -4.4558163 1.8146737
10.889771 -4.4422083 1.8146737
10.926983 -4.424798 1.8146737
10.962271 -4.40376 1.8146737
10.995282 -4.3793044 1.8146737
11.025686 -4.3516755 1.8146737
11.053181 -4.3211489 1.8146737
11.077491 -4.2880301 1.8146737
11.098372 -4.2526498 1.8146737
11.115618 -4.2153611 1.8146737
11.129054 -4.1765375 1.8146737
11.138548 -4.1365666 1.8146737
11.144003 -4.0958476 1.8146737
11.154762 -4.0616961 1.7730719
11.152662 -4.019732 1.7730719
11.146383 -3.9781876 1.7730719
11.135988 -3.9374771 1.7730719
11.121581 -3.8980081 1.7730719
11.103306 -3.8601744 1.7730719
11.081344 -3.8243544 1.7730719
11.055916 -3.7909057 1.7730719
11.027276 -3.7601628 1.7730719
10.99571 -3.7324326 1.7730719
10.961534 -3.7079923 1.7730719
10.925087 -3.6870861 1.7730719
10.886736 -3.6699231 1.7730719
10.846863 -3.6566744 1.7730719
10.805866 -3.6474724 1.7730719
10.764156 -3.6424093 1.7730719
10.722149 -3.6415355 1.7730719
10.680264 -3.64486 1.7730719
10.638921 -3.6523492 1.7730719
10.598531 -3.6639285 1.7730719
10.5595 -3.6794822 1.7730719
10.522216 -3.6988549 1.7730719
10.487052 -3.721853 1.7730719
10.45436 -3.7482464 1.7730719
10.424467 -3.7777719 1.7730719
10.397671 -3.8101344 1.7730719
10.374238 -3.8450103 1.7730719
10.354405 -3.8820512 1.7730719
10.338369 -3.920887 1.7730719
10.32629 -3.9611299 1.7730719
10.31829 -4.0023775 1.7730719
10.314446 -4.0442176 1.7730719
10.314799 -4.0862327 1.7730719
10.319345 -4.1280026 1.7730719
10.328039 -4.1691098 1.7730719
10.340793 -4.2091436 1.7730719
10.357479 -4.2477045 1.7730719
10.377933 -4.2844067 1.7730719
10.401947 -4.3188839 1.7730719
10.429284 -4.350791 1.7730719
10.45967 -4.3798099 1.7730719
10.492801 -4.4056501 1.7730719
10.528346 -4.4280539 1.7730719
10.56595 -4.4467969 1.7730719
10.605238 -4.4616919 1.7730719
10.645816 -4.4725904 1.7730719
10.68728 -4.4793839 1.7730719
10.729215 -4.4820037 1.7730719
10.771201 -4.4804235 1.7730719
10.81282 -4.4746599 1.7730719
10.853656 -4.4647703 1.7730719
10.893301 -4.4508533 1.7730719
10.931358 -4.4330478 1.7730719
10.967447 -4.4115319 1.7730719
11.001208 -4.3865204 1.7730719
11.032304 -4.3582635 1.7730719
11.060423 -4.3270435 1.7730719
11.085285 -4.2931719 1.7730719
11.106641 -4.256988 1.7730719
11.124278 -4.2188525 1.7730719
11.13802 -4.1791468 1.7730719
11.147729 -4.1382675 1.7730719
11.153309 -4.0966234 1.7730719
11.159901 -4.0616961 1.7307458
11.157775 -4.0192194 1.7307458
11.151419 -3.9771667 1.7307458
11.140897 -3.9359589 1.7307458
11.126313 -3.8960073 1.7307458
11.107815 -3.8577113 1.7307458
11.085585 -3.8214533 1.7307458
11.059846 -3.7875957 1.7307458
11.030856 -3.7564771 1.7307458
10.998903 -3.7284081 1.7307458
10.964309 -3.7036691 1.7307458
10.927418 -3.6825073 1.7307458
10.888597 -3.6651344 1.7307458
10.848237 -3.6517236 1.7307458
10.80674 -3.6424093 1.7307458
10.76452 -3.6372843 1.7307458
10.721999 -3.6364 1.7307458
10.679602 -3.639765 1.7307458
10.637753 -3.6473458 1.7307458
10.59687 -3.6590667 1.7307458
10.557362 -3.6748104 1.7307458
10.519622 -3.6944199 1.7307458
10.484029 -3.7176991 1.7307458
10.450937 -3.7444153 1.7307458
10.420678 -3.7743015 1.7307458
10.393554 -3.8070595 1.7307458
10.369836 -3.8423617 1.7307458
10.34976 -3.8798554 1.7307458
10.333529 -3.9191658 1.7307458
10.321301 -3.9599006 1.7307458
10.313203 -4.0016522 1.7307458
10.309313 -4.044004 1.7307458
10.30967 -4.0865326 1.7307458
10.314272 -4.1288128 1.7307458
10.323071 -4.1704226 1.7307458
10.335981 -4.2109461 1.7307458
10.352872 -4.2499781 1.7307458
10.373575 -4.2871289 1.7307458
10.397883 -4.3220272 1.7307458
10.425554 -4.3543248 1.7307458
10.456311 -4.383698 1.7307458
10.489847 -4.4098544 1.7307458
10.525827 -4.4325318 1.7307458
10.563891 -4.4515038 1.7307458
10.603659 -4.4665813 1.7307458
10.644733 -4.477613 1.7307458
10.686704 -4.484489 1.7307458
10.729151 -4.4871411 1.7307458
10.77165 -4.4855418 1.7307458
10.813779 -4.4797077 1.7307458
10.855114 -4.469697 1.7307458
10.895243 -4.4556098 1.7307458
10.933765 -4.4375868 1.7307458
10.970296 -4.4158077 1.7307458
11.004469 -4.3904905 1.7307458
11.035945 -4.3618884 1.7307458
11.064407 -4.330287 1.7307458
11.089574 -4.2960014 1.7307458
11.111191 -4.2593751 1.7307458
11.129044 -4.2207737 1.7307458
11.142953 -4.1805825 1.7307458
11.152781 -4.1392035 1.7307458
11.158429 -4.0970502 1.7307458
11.160787 -4.0616961 1.6881181
11.158657 -4.0191307 1.6881181
11.152288 -3.9769905 1.6881181
11.141744 -3.9356968 1.6881181
11.127131 -3.8956621 1.6881181
11.108592 -3.8572862 1.6881181
11.086316 -3.8209527 1.6881181
11.060524 -3.7870247 1.6881181
11.031473 -3.755841 1.6881181
10.999454 -3.7277136 1.6881181
10.964788 -3.7029228 1.6881181
10.92782 -3.6817172 1.6881181
10.888919 -3.6643081 1.6881181
10.848475 -3.6508694 1.6881181
10.80689 -3.6415355 1.6881181
10.764583 -3.6364 1.6881181
10.721973 -3.6355138 1.6881181
10.679488 -3.6388857 1.6881181
10.637551 -3.6464825 1.6881181
10.596583 -3.6582277 1.6881181
10.556993 -3.6740043 1.6881181
10.519175 -3.6936545 1.6881181
10.483507 -3.7169821 1.6881181
10.450347 -3.7437541 1.6881181
10.420025 -3.7737026 1.6881181
10.392844 -3.8065288 1.6881181
10.369076 -3.8419046 1.6881181
10.348959 -3.8794765 1.6881181
10.332693 -3.918869 1.6881181
10.320441 -3.9596884 1.6881181
10.312325 -4.0015273 1.6881181
10.308427 -4.0439672 1.6881181
10.308785 -4.0865841 1.6881181
10.313396 -4.128953 1.6881181
10.322214 -4.1706491 1.6881181
10.335151 -4.211257 1.6881181
10.352077 -4.2503705 1.6881181
10.372823 -4.2875986 1.6881181
10.397182 -4.3225698 1.6881181
10.424911 -4.3549342 1.6881181
10.455732 -4.3843689 1.6881181
10.489338 -4.4105797 1.6881181
10.525393 -4.4333043 1.6881181
10.563536 -4.4523163 1.6881181
10.603386 -4.4674249 1.6881181
10.644547 -4.4784799 1.6881181
10.686604 -4.4853702 1.6881181
10.729139 -4.4880276 1.6881181
10.771729 -4.4864249 1.6881181
10.813944 -4.4805789 1.6881181
10.855365 -4.4705472 1.6881181
10.895577 -4.4564304 1.6881181
10.93418 -4.4383698 1.6881181
10.970787 -4.4165459 1.6881181
11.005032 -4.3911757 1.6881181
11.036573 -4.362514 1.6881181
11.065095 -4.3308463 1.6881181
11.090314 -4.2964897 1.6881181
11.111976 -4.2597871 1.6881181
11.129866 -4.2211051 1.6881181
11.143805 -4.18083 1.6881181
11.153653 -4.1393652 1.6881181
11.159312 -4.0971241 1.6881181
11.157413 -4.0616961 1.645615
11.1553 -4.0194674 1.645615
11.148982 -3.9776607 1.645615
11.138521 -3.9366937 1.645615
11.124022 -3.8969758 1.645615
11.105632 -3.8589034 1.645615
11.083532 -3.8228576 1.645615
11.057943 -3.7891979 1.645615
11.029123 -3.7582612 1.645615
10.997358 -3.730356 1.645615
10.962965 -3.7057617 1.645615
10.92629 -3.6847236 1.645615
10.887696 -3.6674521 1.645615
10.847572 -3.65412 1.645615
10.806317 -3.64486 1.645615
10.764344 -3.639765 1.645615
10.722072 -3.6388857 1.645615
10.679922 -3.642231 1.645615
10.638318 -3.6497676 1.645615
10.597674 -3.6614199 1.645615
10.558396 -3.6770718 1.645615
10.520878 -3.6965666 1.645615
10.485492 -3.7197096 1.645615
10.452594 -3.7462697 1.645615
10.422512 -3.7759814 1.645615
10.395547 -3.8085477 1.645615
10.371966 -3.8436437 1.645615
10.352009 -3.8809183 1.645615
10.335872 -3.9199989 1.645615
10.323716 -3.9604955 1.645615
10.315665 -4.0020032 1.645615
10.311798 -4.0441074 1.645615
10.312153 -4.0863872 1.645615
10.316728 -4.1284208 1.645615
10.325476 -4.1697869 1.645615
10.33831 -4.2100735 1.645615
10.355102 -4.2488775 1.645615
10.375684 -4.2858114 1.645615
10.39985 -4.3205056 1.645615
10.42736 -4.3526144 1.645615
10.457937 -4.3818159 1.645615
10.491277 -4.4078193 1.645615
10.527046 -4.4303641 1.645615
10.564888 -4.4492254 1.645615
10.604423 -4.4642148 1.645615
10.645257 -4.4751821 1.645615
10.686982 -4.482018 1.645615
10.729181 -4.4846544 1.645615
10.771433 -4.4830647 1.645615
10.813314 -4.4772644 1.645615
10.854408 -4.4673123 1.645615
10.894302 -4.4533076 1.645615
10.9326 -4.4353895 1.645615
10.968917 -4.4137383 1.645615
11.002891 -4.3885689 1.645615
11.034183 -4.3601341 1.645615
11.062479 -4.3287168 1.645615
11.087498 -4.294632 1.645615
11.108989 -4.2582197 1.645615
11.126737 -4.2198439 1.645615
11.140565 -4.1798878 1.645615
11.150335 -4.1387506 1.645615
11.155951 -4.0968437 1.645615
11.149814 -4.0616961 1.6036609
11.147738 -4.020226 1.6036609
11.141533 -3.9791706 1.6036609
11.131261 -3.9389396 1.6036609
11.117023 -3.8999352 1.6036609
11.098963 -3.8625472 1.6036609
11.077259 -3.8271487 1.6036609
11.052131 -3.7940938 1.6036609
11.023829 -3.7637129 1.6036609
10.992634 -3.7363093 1.6036609
10.958859 -3.7121568 1.6036609
10.922842 -3.6914966 1.6036609
10.884943 -3.6745355 1.6036609
10.845539 -3.6614428 1.6036609
10.805025 -3.6523492 1.6036609
10.763806 -3.6473458 1.6036609
10.722293 -3.6464825 1.6036609
10.680902 -3.6497676 1.6036609
10.640045 -3.6571686 1.6036609
10.600131 -3.6686118 1.6036609
10.561559 -3.6839824 1.6036609
10.524714 -3.7031269 1.6036609
10.489964 -3.7258542 1.6036609
10.457658 -3.7519369 1.6036609
10.428116 -3.7811148 1.6036609
10.401635 -3.813096 1.6036609
10.378479 -3.8475614 1.6036609
10.358879 -3.8841662 1.6036609
10.343032 -3.922545 1.6036609
10.331096 -3.9623139 1.6036609
10.323189 -4.0030756 1.6036609
10.319391 -4.0444236 1.6036609
10.31974 -4.0859437 1.6036609
10.324232 -4.1272216 1.6036609
10.332824 -4.1678452 1.6036609
10.345427 -4.207408 1.6036609
10.361917 -4.2455144 1.6036609
10.38213 -4.2817845 1.6036609
10.405862 -4.3158555 1.6036609
10.432877 -4.3473873 1.6036609
10.462905 -4.3760643 1.6036609
10.495646 -4.4016004 1.6036609
10.530772 -4.4237404 1.6036609
10.567934 -4.4422626 1.6036609
10.606759 -4.4569826 1.6036609
10.646859 -4.4677529 1.6036609
10.687835 -4.4744663 1.6036609
10.729276 -4.4770551 1.6036609
10.770768 -4.4754939 1.6036609
10.811897 -4.4697981 1.6036609
10.852252 -4.4600248 1.6036609
10.89143 -4.4462714 1.6036609
10.929039 -4.4286757 1.6036609
10.964704 -4.407413 1.6036609
10.998068 -4.3826962 1.6036609
11.028797 -4.3547716 1.6036609
11.056585 -4.3239193 1.6036609
11.081154 -4.2904468 1.6036609
11.102259 -4.2546887 1.6036609
11.119688 -4.2170024 1.6036609
11.133268 -4.1777639 1.6036609
11.142863 -4.1373663 1.6036609
11.148377 -4.0962119 1.6036609
11.138063 -4.0616961 1.5626752
11.136046 -4.021399 1.5626752
11.130017 -3.9815052 1.5626752
11.120035 -3.9424121 1.5626752
11.1062 -3.904511 1.5626752
11.088651 -3.8681805 1.5626752
11.067561 -3.8337834 1.5626752
11.043144 -3.8016636 1.5626752
11.015642 -3.7721419 1.5626752
10.98533 -3.7455134 1.5626752
10.952511 -3.7220442 1.5626752
10.917512 -3.7019687 1.5626752
10.880685 -3.6854873 1.5626752
10.842396 -3.6727648 1.5626752
10.803028 -3.6639285 1.5626752
10.762975 -3.6590667 1.5626752
10.722636 -3.6582277 1.5626752
10.682416 -3.6614199 1.5626752
10.642715 -3.6686118 1.5626752
10.60393 -3.6797311 1.5626752
10.566449 -3.6946669 1.5626752
10.530646 -3.7132697 1.5626752
10.49688 -3.7353542 1.5626752
10.465487 -3.7606993 1.5626752
10.436781 -3.7890518 1.5626752
10.411049 -3.8201284 1.5626752
10.388548 -3.8536186 1.5626752
10.369503 -3.8891881 1.5626752
10.354104 -3.926481 1.5626752
10.342505 -3.9651251 1.5626752
10.334822 -4.004734 1.5626752
10.331131 -4.0449119 1.5626752
10.33147 -4.085258 1.5626752
10.335835 -4.1253681 1.5626752
10.344184 -4.1648426 1.5626752
10.356431 -4.2032862 1.5626752
10.372455 -4.240315 1.5626752
10.392095 -4.2755589 1.5626752
10.415155 -4.3086662 1.5626752
10.441406 -4.3393059 1.5626752
10.470585 -4.3671718 1.5626752
10.5024 -4.3919854 1.5626752
10.536533 -4.4134989 1.5626752
10.572643 -4.4314976 1.5626752
10.61037 -4.4458008 1.5626752
10.649336 -4.4562664 1.5626752
10.689153 -4.46279 1.5626752
10.729422 -4.4653053 1.5626752
10.76974 -4.4637885 1.5626752
10.809706 -4.4582539 1.5626752
10.848919 -4.4487572 1.5626752
10.886989 -4.4353929 1.5626752
10.923534 -4.4182944 1.5626752
10.95819 -4.3976336 1.5626752
10.990609 -4.3736157 1.5626752
11.02047 -4.3464813 1.5626752
11.047472 -4.3165016 1.5626752
11.071346 -4.2839761 1.5626752
11.091854 -4.2492294 1.5626752
11.10879 -4.2126088 1.5626752
11.121986 -4.1744809 1.5626752
11.13131 -4.1352258 1.5626752
11.136667 -4.0952358 1.5626752
11.12228 -4.0616961 1.5230674
11.120342 -4.022975 1.5230674
11.114549 -3.9846408 1.5230674
11.104957 -3.9470763 1.5230674
11.091662 -3.9106574 1.5230674
11.0748 -3.8757474 1.5230674
11.054535 -3.8426955 1.5230674
11.031073 -3.8118315 1.5230674
11.004645 -3.7834644 1.5230674
10.975518 -3.7578771 1.5230674
10.943983 -3.7353253 1.5230674
10.910353 -3.7160349 1.5230674
10.874966 -3.7001979 1.5230674
10.838174 -3.687973 1.5230674
10.800345 -3.6794822 1.5230674
10.761859 -3.6748104 1.5230674
10.723098 -3.6740043 1.5230674
10.684449 -3.6770718 1.5230674
10.6463 -3.6839824 1.5230674
10.609033 -3.6946669 1.5230674
10.573017 -3.7090185 1.5230674
10.538614 -3.7268941 1.5230674
10.506168 -3.7481151 1.5230674
10.476003 -3.772469 1.5230674
10.44842 -3.7997127 1.5230674
10.423694 -3.8295743 1.5230674
10.402072 -3.8617551 1.5230674
10.383772 -3.8959336 1.5230674
10.368975 -3.9317684 1.5230674
10.35783 -3.9689012 1.5230674
10.350447 -4.0069613 1.5230674
10.346901 -4.0455685 1.5230674
10.347227 -4.0843368 1.5230674
10.351421 -4.1228786 1.5230674
10.359443 -4.160809 1.5230674
10.371211 -4.1977496 1.5230674
10.386608 -4.2333302 1.5230674
10.40548 -4.2671962 1.5230674
10.42764 -4.2990088 1.5230674
10.452865 -4.3284507 1.5230674
10.480902 -4.355227 1.5230674
10.511473 -4.3790703 1.5230674
10.544271 -4.3997426 1.5230674
10.578969 -4.4170375 1.5230674
10.615221 -4.4307814 1.5230674
10.652663 -4.4408379 1.5230674
10.690923 -4.4471064 1.5230674
10.729617 -4.4495234 1.5230674
10.768359 -4.4480658 1.5230674
10.806762 -4.4427476 1.5230674
10.844442 -4.4336219 1.5230674
10.881023 -4.4207802 1.5230674
10.91614 -4.4043508 1.5230674
10.94944 -4.3844976 1.5230674
10.980592 -4.3614187 1.5230674
11.009285 -4.3353457 1.5230674
11.035231 -4.3065381 1.5230674
11.058171 -4.2752843 1.5230674
11.077877 -4.2418966 1.5230674
11.094151 -4.206708 1.5230674
11.106832 -4.1700706 1.5230674
11.11579 -4.1323504 1.5230674
11.120938 -4.093924 1.5230674
11.102621 -4.0616961 1.4852331
11.100781 -4.0249376 1.4852331
11.095282 -3.9885464 1.4852331
11.086176 -3.9528859 1.4852331
11.073556 -3.9183128 1.4852331
11.057548 -3.8851724 1.4852331
11.03831 -3.8537955 1.4852331
11.016036 -3.824496 1.4852331
10.990949 -3.7975667 1.4852331
10.963299 -3.7732763 1.4852331
10.933361 -3.7518678 1.4852331
10.901436 -3.7335548 1.4852331
10.867843 -3.7185206 1.4852331
10.832915 -3.7069154 1.4852331
10.797005 -3.6988549 1.4852331
10.760468 -3.6944199 1.4852331
10.723671 -3.6936545 1.4852331
10.686982 -3.6965666 1.4852331
10.650767 -3.7031269 1.4852331
10.615388 -3.7132697 1.4852331
10.581198 -3.7268941 1.4852331
10.548539 -3.7438636 1.4852331
10.517737 -3.764009 1.4852331
10.4891 -3.7871284 1.4852331
10.462915 -3.8129914 1.4852331
10.439443 -3.8413393 1.4852331
10.418918 -3.8718891 1.4852331
10.401545 -3.9043353 1.4852331
10.387498 -3.9383538 1.4852331
10.376918 -3.9736047 1.4852331
10.369909 -4.0097356 1.4852331
10.366543 -4.0463858 1.4852331
10.366852 -4.083189 1.4852331
10.370834 -4.1197772 1.4852331
10.378448 -4.1557856 1.4852331
10.389621 -4.1908536 1.4852331
10.404238 -4.2246308 1.4852331
10.422153 -4.2567806 1.4852331
10.44319 -4.2869806 1.4852331
10.467135 -4.31493 1.4852331
10.493752 -4.3403492 1.4852331
10.522773 -4.3629842 1.4852331
10.553909 -4.3826089 1.4852331
10.586848 -4.3990269 1.4852331
10.621263 -4.4120741 1.4852331
10.656807 -4.4216208 1.4852331
10.693128 -4.4275713 1.4852331
10.72986 -4.4298663 1.4852331
10.766639 -4.4284825 1.4852331
10.803096 -4.4234338 1.4852331
10.838866 -4.4147706 1.4852331
10.873592 -4.4025798 1.4852331
10.906929 -4.3869834 1.4852331
10.938541 -4.3681364 1.4852331
10.968115 -4.3462276 1.4852331
10.995353 -4.3214755 1.4852331
11.019984 -4.2941284 1.4852331
11.041762 -4.2644587 1.4852331
11.060469 -4.2327628 1.4852331
11.075918 -4.199358 1.4852331
11.087955 -4.1645775 1.4852331
11.09646 -4.1287694 1.4852331
11.101348 -4.0922909 1.4852331
11.079284 -4.0616961 1.4495504
11.07756 -4.0272675 1.4495504
11.07241 -3.9931827 1.4495504
11.063881 -3.9597826 1.4495504
11.052061 -3.9274008 1.4495504
11.037066 -3.8963609 1.4495504
11.019049 -3.8669729 1.4495504
10.998187 -3.8395305 1.4495504
10.974689 -3.8143079 1.4495504
10.948792 -3.7915573 1.4495504
10.920752 -3.7715056 1.4495504
10.89085 -3.7543535 1.4495504
10.859385 -3.7402723 1.4495504
10.826673 -3.7294025 1.4495504
10.793037 -3.721853 1.4495504
10.758817 -3.7176991 1.4495504
10.724353 -3.7169821 1.4495504
10.689989 -3.7197096 1.4495504
10.65607 -3.7258542 1.4495504
10.622932 -3.7353542 1.4495504
