# .PCD v0.7 - Point Cloud Data file format
VERSION 0.7
FIELDS x y z
SIZE 4 4 4
TYPE F F F
COUNT 1 1 1
WIDTH 1542
HEIGHT 1
VIEWPOINT 0 0 0 1 0 0 0
POINTS 1542
DATA ascii
23.354149 8.1470108 0.35572883
23.354149 8.1470108 0.45572883
23.354149 8.1470108 0.55572885
23.354149 8.1470108 0.65572888
23.354149 8.1470108 0.7557289
23.354149 8.1470108 0.85572892
23.354149 8.1470108 0.95572895
23.354149 8.1470108 1.0557289
23.354149 8.1470108 1.1557289
23.354149 8.1470108 1.255729
23.354149 8.1470108 1.355729
23.354149 8.1470108 1.455729
23.354149 8.1470108 1.555729
23.354149 8.1470108 1.6557291
23.354149 8.1470108 1.7557291
23.328354 8.1158581 0.055728853
23.328354 8.1158581 0.15572885
23.328354 8.1158581 0.25572884
23.328354 8.1158581 0.35572883
23.328354 8.1158581 0.45572883
23.328354 8.1158581 0.55572885
23.328354 8.1158581 0.65572888
23.328354 8.1158581 0.7557289
23.328354 8.1158581 0.85572892
23.328354 8.1158581 0.95572895
23.328354 8.1158581 1.0557289
23.328354 8.1158581 1.1557289
23.328354 8.1158581 1.255729
23.328354 8.1158581 1.355729
23.328354 8.1158581 1.455729
23.328354 8.1158581 1.555729
23.328354 8.1158581 1.6557291
23.328354 8.1158581 1.7557291
23.305798 8.0822868 0.055728853
23.305798 8.0822868 0.15572885
23.305798 8.0822868 0.25572884
23.305798 8.0822868 0.35572883
23.305798 8.0822868 0.45572883
23.305798 8.0822868 0.55572885
23.305798 8.0822868 0.65572888
23.305798 8.0822868 0.7557289
23.305798 8.0822868 0.85572892
23.305798 8.0822868 0.95572895
23.305798 8.0822868 1.0557289
23.305798 8.0822868 1.1557289
23.305798 8.0822868 1.255729
23.305798 8.0822868 1.355729
23.305798 8.0822868 1.455729
23.305798 8.0822868 1.555729
23.305798 8.0822868 1.6557291
23.305798 8.0822868 1.7557291
23.286705 8.0466299 0.055728853
23.286705 8.0466299 0.15572885
23.286705 8.0466299 0.25572884
23.286705 8.0466299 0.35572883
23.286705 8.0466299 0.45572883
23.286705 8.0466299 0.55572885
23.286705 8.0466299 0.65572888
23.286705 8.0466299 0.7557289
23.286705 8.0466299 0.85572892
23.286705 8.0466299 0.95572895
23.286705 8.0466299 1.0557289
23.286705 8.0466299 1.1557289
23.286705 8.0466299 1.255729
23.286705 8.0466299 1.355729
23.286705 8.0466299 1.455729
23.286705 8.0466299 1.555729
23.286705 8.0466299 1.6557291
23.286705 8.0466299 1.7557291
23.271269 8.0092459 0.055728853
23.271269 8.0092459 0.15572885
23.271269 8.0092459 0.25572884
23.271269 8.0092459 0.35572883
23.271269 8.0092459 0.45572883
23.271269 8.0092459 0.55572885
23.271269 8.0092459 0.65572888
23.271269 8.0092459 0.7557289
23.271269 8.0092459 0.85572892
23.271269 8.0092459 0.95572895
23.271269 8.0092459 1.0557289
23.271269 8.0092459 1.1557289
23.271269 8.0092459 1.255729
23.271269 8.0092459 1.355729
23.271269 8.0092459 1.455729
23.271269 8.0092459 1.555729
23.271269 8.0092459 1.6557291
23.271269 8.0092459 1.7557291
23.259642 7.9705076 0.055728853
23.259642 7.9705076 0.15572885
23.259642 7.9705076 0.25572884
23.259642 7.9705076 0.35572883
23.259642 7.9705076 0.45572883
23.259642 7.9705076 0.55572885
23.259642 7.9705076 0.65572888
23.259642 7.9705076 0.7557289
23.259642 7.9705076 0.85572892
23.259642 7.9705076 0.95572895
23.259642 7.9705076 1.0557289
23.259642 7.9705076 1.1557289
23.259642 7.9705076 1.255729
23.259642 7.9705076 1.355729
23.259642 7.9705076 1.455729
23.259642 7.9705076 1.555729
23.259642 7.9705076 1.6557291
23.259642 7.9705076 1.7557291
23.25194 7.9308019 0.055728853
23.25194 7.9308019 0.15572885
23.25194 7.9308019 0.25572884
23.25194 7.9308019 0.35572883
23.25194 7.9308019 0.45572883
23.25194 7.9308019 0.55572885
23.25194 7.9308019 0.65572888
23.25194 7.9308019 0.7557289
23.25194 7.9308019 0.85572892
23.25194 7.9308019 0.95572895
23.25194 7.9308019 1.0557289
23.25194 7.9308019 1.1557289
23.25194 7.9308019 1.255729
23.25194 7.9308019 1.355729
23.25194 7.9308019 1.455729
23.25194 7.9308019 1.555729
23.25194 7.9308019 1.6557291
23.25194 7.9308019 1.7557291
23.248241 7.8905258 0.055728853
23.248241 7.8905258 0.15572885
23.248241 7.8905258 0.25572884
23.248241 7.8905258 0.35572883
23.248241 7.8905258 0.45572883
23.248241 7.8905258 0.55572885
23.248241 7.8905258 0.65572888
23.248241 7.8905258 0.7557289
23.248241 7.8905258 0.85572892
23.248241 7.8905258 0.95572895
23.248241 7.8905258 1.0557289
23.248241 7.8905258 1.1557289
23.248241 7.8905258 1.255729
23.248241 7.8905258 1.355729
23.248241 7.8905258 1.455729
23.248241 7.8905258 1.555729
23.248241 7.8905258 1.6557291
23.248241 7.8905258 1.7557291
23.248581 7.8500814 0.055728853
23.248581 7.8500814 0.15572885
23.248581 7.8500814 0.25572884
23.248581 7.8500814 0.35572883
23.248581 7.8500814 0.45572883
23.248581 7.8500814 0.55572885
23.248581 7.8500814 0.65572888
23.248581 7.8500814 0.7557289
23.248581 7.8500814 0.85572892
23.248581 7.8500814 0.95572895
23.248581 7.8500814 1.0557289
23.248581 7.8500814 1.1557289
23.248581 7.8500814 1.255729
23.248581 7.8500814 1.355729
23.248581 7.8500814 1.455729
23.248581 7.8500814 1.555729
23.248581 7.8500814 1.6557291
23.248581 7.8500814 1.7557291
23.252956 7.8098731 0.055728853
23.252956 7.8098731 0.15572885
23.252956 7.8098731 0.25572884
23.252956 7.8098731 0.35572883
23.252956 7.8098731 0.45572883
23.252956 7.8098731 0.55572885
23.252956 7.8098731 0.65572888
23.252956 7.8098731 0.7557289
23.252956 7.8098731 0.85572892
23.252956 7.8098731 0.95572895
23.252956 7.8098731 1.0557289
23.252956 7.8098731 1.1557289
23.252956 7.8098731 1.255729
23.252956 7.8098731 1.355729
23.252956 7.8098731 1.455729
23.252956 7.8098731 1.555729
23.252956 7.8098731 1.6557291
23.252956 7.8098731 1.7557291
23.261324 7.7703023 0.055728853
23.261324 7.7703023 0.15572885
23.261324 7.7703023 0.25572884
23.261324 7.7703023 0.35572883
23.261324 7.7703023 0.45572883
23.261324 7.7703023 0.55572885
23.261324 7.7703023 0.65572888
23.261324 7.7703023 0.7557289
23.261324 7.7703023 0.85572892
23.261324 7.7703023 0.95572895
23.261324 7.7703023 1.0557289
23.261324 7.7703023 1.1557289
23.261324 7.7703023 1.255729
23.261324 7.7703023 1.355729
23.261324 7.7703023 1.455729
23.261324 7.7703023 1.555729
23.261324 7.7703023 1.6557291
23.261324 7.7703023 1.7557291
23.273602 7.7317648 0.055728853
23.273602 7.7317648 0.15572885
23.273602 7.7317648 0.25572884
23.273602 7.7317648 0.35572883
23.273602 7.7317648 0.45572883
23.273602 7.7317648 0.55572885
23.273602 7.7317648 0.65572888
23.273602 7.7317648 0.7557289
23.273602 7.7317648 0.85572892
23.273602 7.7317648 0.95572895
23.273602 7.7317648 1.0557289
23.273602 7.7317648 1.1557289
23.273602 7.7317648 1.255729
23.273602 7.7317648 1.355729
23.273602 7.7317648 1.455729
23.273602 7.7317648 1.555729
23.273602 7.7317648 1.6557291
23.273602 7.7317648 1.7557291
23.289665 7.6946454 0.055728853
23.289665 7.6946454 0.15572885
23.289665 7.6946454 0.25572884
23.289665 7.6946454 0.35572883
23.289665 7.6946454 0.45572883
23.289665 7.6946454 0.55572885
23.289665 7.6946454 0.65572888
23.289665 7.6946454 0.7557289
23.289665 7.6946454 0.85572892
23.289665 7.6946454 0.95572895
23.289665 7.6946454 1.0557289
23.289665 7.6946454 1.1557289
23.289665 7.6946454 1.255729
23.289665 7.6946454 1.355729
23.289665 7.6946454 1.455729
23.289665 7.6946454 1.555729
23.289665 7.6946454 1.6557291
23.289665 7.6946454 1.7557291
23.309353 7.6593151 0.055728853
23.309353 7.6593151 0.15572885
23.309353 7.6593151 0.25572884
23.309353 7.6593151 0.35572883
23.309353 7.6593151 0.45572883
23.309353 7.6593151 0.55572885
23.309353 7.6593151 0.65572888
23.309353 7.6593151 0.7557289
23.309353 7.6593151 0.85572892
23.309353 7.6593151 0.95572895
23.309353 7.6593151 1.0557289
23.309353 7.6593151 1.1557289
23.309353 7.6593151 1.255729
23.309353 7.6593151 1.355729
23.309353 7.6593151 1.455729
23.309353 7.6593151 1.555729
23.309353 7.6593151 1.6557291
23.309353 7.6593151 1.7557291
23.33247 7.6261272 0.055728853
23.33247 7.6261272 0.15572885
23.33247 7.6261272 0.25572884
23.33247 7.6261272 0.35572883
23.33247 7.6261272 0.45572883
23.33247 7.6261272 0.55572885
23.33247 7.6261272 0.65572888
23.33247 7.6261272 0.7557289
23.33247 7.6261272 0.85572892
23.33247 7.6261272 0.95572895
23.33247 7.6261272 1.0557289
23.33247 7.6261272 1.1557289
23.33247 7.6261272 1.255729
23.33247 7.6261272 1.355729
23.33247 7.6261272 1.455729
23.33247 7.6261272 1.555729
23.33247 7.6261272 1.6557291
23.33247 7.6261272 1.7557291
23.358786 7.5954127 0.055728853
23.358786 7.5954127 0.15572885
23.358786 7.5954127 0.25572884
23.358786 7.5954127 0.35572883
23.358786 7.5954127 0.45572883
23.358786 7.5954127 0.55572885
23.358786 7.5954127 0.65572888
23.358786 7.5954127 0.7557289
23.358786 7.5954127 0.85572892
23.358786 7.5954127 0.95572895
23.358786 7.5954127 1.0557289
23.358786 7.5954127 1.1557289
23.358786 7.5954127 1.255729
23.358786 7.5954127 1.355729
23.358786 7.5954127 1.455729
23.358786 7.5954127 1.555729
23.358786 7.5954127 1.6557291
23.358786 7.5954127 1.7557291
23.388035 7.5674787 0.055728853
23.388035 7.5674787 0.15572885
23.388035 7.5674787 0.25572884
23.388035 7.5674787 0.35572883
23.388035 7.5674787 0.45572883
23.388035 7.5674787 0.55572885
23.388035 7.5674787 0.65572888
23.388035 7.5674787 0.7557289
23.388035 7.5674787 0.85572892
23.388035 7.5674787 0.95572895
23.388035 7.5674787 1.0557289
23.388035 7.5674787 1.1557289
23.388035 7.5674787 1.255729
23.388035 7.5674787 1.355729
23.388035 7.5674787 1.455729
23.388035 7.5674787 1.555729
23.388035 7.5674787 1.6557291
23.388035 7.5674787 1.7557291
23.419928 7.542604 0.055728853
23.419928 7.542604 0.15572885
23.419928 7.542604 0.25572884
23.419928 7.542604 0.35572883
23.419928 7.542604 0.45572883
23.419928 7.542604 0.55572885
23.419928 7.542604 0.65572888
23.419928 7.542604 0.7557289
23.419928 7.542604 0.85572892
23.419928 7.542604 0.95572895
23.419928 7.542604 1.0557289
23.419928 7.542604 1.1557289
23.419928 7.542604 1.255729
23.419928 7.542604 1.355729
23.419928 7.542604 1.455729
23.419928 7.542604 1.555729
23.419928 7.542604 1.6557291
23.419928 7.542604 1.7557291
23.454144 7.5210381 0.055728853
23.454144 7.5210381 0.15572885
23.454144 7.5210381 0.25572884
23.454144 7.5210381 0.35572883
23.454144 7.5210381 0.45572883
23.454144 7.5210381 0.55572885
23.454144 7.5210381 0.65572888
23.454144 7.5210381 0.7557289
23.454144 7.5210381 0.85572892
23.454144 7.5210381 0.95572895
23.454144 7.5210381 1.0557289
23.454144 7.5210381 1.1557289
23.454144 7.5210381 1.255729
23.454144 7.5210381 1.355729
23.454144 7.5210381 1.455729
23.454144 7.5210381 1.555729
23.454144 7.5210381 1.6557291
23.454144 7.5210381 1.7557291
23.490343 7.5029955 0.055728853
23.490343 7.5029955 0.15572885
23.490343 7.5029955 0.25572884
23.490343 7.5029955 0.35572883
23.490343 7.5029955 0.45572883
23.490343 7.5029955 0.55572885
23.490343 7.5029955 0.65572888
23.490343 7.5029955 0.7557289
23.490343 7.5029955 0.85572892
23.490343 7.5029955 0.95572895
23.490343 7.5029955 1.0557289
23.490343 7.5029955 1.1557289
23.490343 7.5029955 1.255729
23.490343 7.5029955 1.355729
23.490343 7.5029955 1.455729
23.490343 7.5029955 1.555729
23.490343 7.5029955 1.6557291
23.490343 7.5029955 1.7557291
23.528162 7.488657 0.055728853
23.528162 7.488657 0.15572885
23.528162 7.488657 0.25572884
23.528162 7.488657 0.35572883
23.528162 7.488657 0.45572883
23.528162 7.488657 0.55572885
23.528162 7.488657 0.65572888
23.528162 7.488657 0.7557289
23.528162 7.488657 0.85572892
23.528162 7.488657 0.95572895
23.528162 7.488657 1.0557289
23.528162 7.488657 1.1557289
23.528162 7.488657 1.255729
23.528162 7.488657 1.355729
23.528162 7.488657 1.455729
23.528162 7.488657 1.555729
23.528162 7.488657 1.6557291
23.528162 7.488657 1.7557291
23.567223 7.4781661 0.055728853
23.567223 7.4781661 0.15572885
23.567223 7.4781661 0.25572884
23.567223 7.4781661 0.35572883
23.567223 7.4781661 0.45572883
23.567223 7.4781661 0.55572885
23.567223 7.4781661 0.65572888
23.567223 7.4781661 0.7557289
23.567223 7.4781661 0.85572892
23.567223 7.4781661 0.95572895
23.567223 7.4781661 1.0557289
23.567223 7.4781661 1.1557289
23.567223 7.4781661 1.255729
23.567223 7.4781661 1.355729
23.567223 7.4781661 1.455729
23.567223 7.4781661 1.555729
23.567223 7.4781661 1.6557291
23.567223 7.4781661 1.7557291
23.607136 7.4716268 0.055728853
23.607136 7.4716268 0.15572885
23.607136 7.4716268 0.25572884
23.607136 7.4716268 0.35572883
23.607136 7.4716268 0.45572883
23.607136 7.4716268 0.55572885
23.607136 7.4716268 0.65572888
23.607136 7.4716268 0.7557289
23.607136 7.4716268 0.85572892
23.607136 7.4716268 0.95572895
23.607136 7.4716268 1.0557289
23.607136 7.4716268 1.1557289
23.607136 7.4716268 1.255729
23.607136 7.4716268 1.355729
23.607136 7.4716268 1.455729
23.607136 7.4716268 1.555729
23.607136 7.4716268 1.6557291
23.607136 7.4716268 1.7557291
23.647503 7.4691048 0.055728853
23.647503 7.4691048 0.15572885
23.647503 7.4691048 0.25572884
23.647503 7.4691048 0.35572883
23.647503 7.4691048 0.45572883
23.647503 7.4691048 0.55572885
23.647503 7.4691048 0.65572888
23.647503 7.4691048 0.7557289
23.647503 7.4691048 0.85572892
23.647503 7.4691048 0.95572895
23.647503 7.4691048 1.0557289
23.647503 7.4691048 1.1557289
23.647503 7.4691048 1.255729
23.647503 7.4691048 1.355729
23.647503 7.4691048 1.455729
23.647503 7.4691048 1.555729
23.647503 7.4691048 1.6557291
23.647503 7.4691048 1.7557291
23.687922 7.4706259 0.055728853
23.687922 7.4706259 0.15572885
23.687922 7.4706259 0.25572884
23.687922 7.4706259 0.35572883
23.687922 7.4706259 0.45572883
23.687922 7.4706259 0.55572885
23.687922 7.4706259 0.65572888
23.687922 7.4706259 0.7557289
23.687922 7.4706259 0.85572892
23.687922 7.4706259 0.95572895
23.687922 7.4706259 1.0557289
23.687922 7.4706259 1.1557289
23.687922 7.4706259 1.255729
23.687922 7.4706259 1.355729
23.687922 7.4706259 1.455729
23.687922 7.4706259 1.555729
23.687922 7.4706259 1.6557291
23.687922 7.4706259 1.7557291
23.727983 7.4761739 0.055728853
23.727983 7.4761739 0.15572885
23.727983 7.4761739 0.25572884
23.727983 7.4761739 0.35572883
23.727983 7.4761739 0.45572883
23.727983 7.4761739 0.55572885
23.727983 7.4761739 0.65572888
23.727983 7.4761739 0.7557289
23.727983 7.4761739 0.85572892
23.727983 7.4761739 0.95572895
23.727983 7.4761739 1.0557289
23.727983 7.4761739 1.1557289
23.727983 7.4761739 1.255729
23.727983 7.4761739 1.355729
23.727983 7.4761739 1.455729
23.727983 7.4761739 1.555729
23.727983 7.4761739 1.6557291
23.727983 7.4761739 1.7557291
23.767294 7.4856939 0.055728853
23.767294 7.4856939 0.15572885
23.767294 7.4856939 0.25572884
23.767294 7.4856939 0.35572883
23.767294 7.4856939 0.45572883
23.767294 7.4856939 0.55572885
23.767294 7.4856939 0.65572888
23.767294 7.4856939 0.7557289
23.767294 7.4856939 0.85572892
23.767294 7.4856939 0.95572895
23.767294 7.4856939 1.0557289
23.767294 7.4856939 1.1557289
23.767294 7.4856939 1.255729
23.767294 7.4856939 1.355729
23.767294 7.4856939 1.455729
23.767294 7.4856939 1.555729
23.767294 7.4856939 1.6557291
23.767294 7.4856939 1.7557291
23.805456 7.4990907 0.055728853
23.805456 7.4990907 0.15572885
23.805456 7.4990907 0.25572884
23.805456 7.4990907 0.35572883
23.805456 7.4990907 0.45572883
23.805456 7.4990907 0.55572885
23.805456 7.4990907 0.65572888
23.805456 7.4990907 0.7557289
23.805456 7.4990907 0.85572892
23.805456 7.4990907 0.95572895
23.805456 7.4990907 1.0557289
23.805456 7.4990907 1.1557289
23.805456 7.4990907 1.255729
23.805456 7.4990907 1.355729
23.805456 7.4990907 1.455729
23.805456 7.4990907 1.555729
23.805456 7.4990907 1.6557291
23.805456 7.4990907 1.7557291
23.842091 7.5162306 0.055728853
23.842091 7.5162306 0.15572885
23.842091 7.5162306 0.25572884
23.842091 7.5162306 0.35572883
23.842091 7.5162306 0.45572883
23.842091 7.5162306 0.55572885
23.842091 7.5162306 0.65572888
23.842091 7.5162306 0.7557289
23.842091 7.5162306 0.85572892
23.842091 7.5162306 0.95572895
23.842091 7.5162306 1.0557289
23.842091 7.5162306 1.1557289
23.842091 7.5162306 1.255729
23.842091 7.5162306 1.355729
23.842091 7.5162306 1.455729
23.842091 7.5162306 1.555729
23.842091 7.5162306 1.6557291
23.842091 7.5162306 1.7557291
23.876831 7.5369425 0.055728853
23.876831 7.5369425 0.15572885
23.876831 7.5369425 0.25572884
23.876831 7.5369425 0.35572883
23.876831 7.5369425 0.45572883
23.876831 7.5369425 0.55572885
23.876831 7.5369425 0.65572888
23.876831 7.5369425 0.7557289
23.876831 7.5369425 0.85572892
23.876831 7.5369425 0.95572895
23.876831 7.5369425 1.0557289
23.876831 7.5369425 1.1557289
23.876831 7.5369425 1.255729
23.876831 7.5369425 1.355729
23.876831 7.5369425 1.455729
23.876831 7.5369425 1.555729
23.876831 7.5369425 1.6557291
23.876831 7.5369425 1.7557291
23.90933 7.5610189 0.055728853
23.90933 7.5610189 0.15572885
23.90933 7.5610189 0.25572884
23.90933 7.5610189 0.35572883
23.90933 7.5610189 0.45572883
23.90933 7.5610189 0.55572885
23.90933 7.5610189 0.65572888
23.90933 7.5610189 0.7557289
23.90933 7.5610189 0.85572892
23.90933 7.5610189 0.95572895
23.90933 7.5610189 1.0557289
23.90933 7.5610189 1.1557289
23.90933 7.5610189 1.255729
23.90933 7.5610189 1.355729
23.90933 7.5610189 1.455729
23.90933 7.5610189 1.555729
23.90933 7.5610189 1.6557291
23.90933 7.5610189 1.7557291
23.939262 7.5882192 0.055728853
23.939262 7.5882192 0.15572885
23.939262 7.5882192 0.25572884
23.939262 7.5882192 0.35572883
23.939262 7.5882192 0.45572883
23.939262 7.5882192 0.55572885
23.939262 7.5882192 0.65572888
23.939262 7.5882192 0.7557289
23.939262 7.5882192 0.85572892
23.939262 7.5882192 0.95572895
23.939262 7.5882192 1.0557289
23.939262 7.5882192 1.1557289
23.939262 7.5882192 1.255729
23.939262 7.5882192 1.355729
23.939262 7.5882192 1.455729
23.939262 7.5882192 1.555729
23.939262 7.5882192 1.6557291
23.939262 7.5882192 1.7557291
23.966331 7.6182723 0.055728853
23.966331 7.6182723 0.15572885
23.966331 7.6182723 0.25572884
23.966331 7.6182723 0.35572883
23.966331 7.6182723 0.45572883
23.966331 7.6182723 0.55572885
23.966331 7.6182723 0.65572888
23.966331 7.6182723 0.7557289
23.966331 7.6182723 0.85572892
23.966331 7.6182723 0.95572895
23.966331 7.6182723 1.0557289
23.966331 7.6182723 1.1557289
23.966331 7.6182723 1.255729
23.966331 7.6182723 1.355729
23.966331 7.6182723 1.455729
23.966331 7.6182723 1.555729
23.966331 7.6182723 1.6557291
23.966331 7.6182723 1.7557291
23.990263 7.6508775 0.055728853
23.990263 7.6508775 0.15572885
23.990263 7.6508775 0.25572884
23.990263 7.6508775 0.35572883
23.990263 7.6508775 0.45572883
23.990263 7.6508775 0.55572885
23.990263 7.6508775 0.65572888
23.990263 7.6508775 0.7557289
23.990263 7.6508775 0.85572892
23.990263 7.6508775 0.95572895
23.990263 7.6508775 1.0557289
23.990263 7.6508775 1.1557289
23.990263 7.6508775 1.255729
23.990263 7.6508775 1.355729
23.990263 7.6508775 1.455729
23.990263 7.6508775 1.555729
23.990263 7.6508775 1.6557291
23.990263 7.6508775 1.7557291
24.010822 7.685709 0.055728853
24.010822 7.685709 0.15572885
24.010822 7.685709 0.25572884
24.010822 7.685709 0.35572883
24.010822 7.685709 0.45572883
24.010822 7.685709 0.55572885
24.010822 7.685709 0.65572888
24.010822 7.685709 0.7557289
24.010822 7.685709 0.85572892
24.010822 7.685709 0.95572895
24.010822 7.685709 1.0557289
24.010822 7.685709 1.1557289
24.010822 7.685709 1.255729
24.010822 7.685709 1.355729
24.010822 7.685709 1.455729
24.010822 7.685709 1.555729
24.010822 7.685709 1.6557291
24.010822 7.685709 1.7557291
24.0278 7.7224188 0.055728853
24.0278 7.7224188 0.15572885
24.0278 7.7224188 0.25572884
24.0278 7.7224188 0.35572883
24.0278 7.7224188 0.45572883
24.0278 7.7224188 0.55572885
24.0278 7.7224188 0.65572888
24.0278 7.7224188 0.7557289
24.0278 7.7224188 0.85572892
24.0278 7.7224188 0.95572895
24.0278 7.7224188 1.0557289
24.0278 7.7224188 1.1557289
24.0278 7.7224188 1.255729
24.0278 7.7224188 1.355729
24.0278 7.7224188 1.455729
24.0278 7.7224188 1.555729
24.0278 7.7224188 1.6557291
24.0278 7.7224188 1.7557291
24.041027 7.7606401 0.055728853
24.041027 7.7606401 0.15572885
24.041027 7.7606401 0.25572884
24.041027 7.7606401 0.35572883
24.041027 7.7606401 0.45572883
24.041027 7.7606401 0.55572885
24.041027 7.7606401 0.65572888
24.041027 7.7606401 0.7557289
24.041027 7.7606401 0.85572892
24.041027 7.7606401 0.95572895
24.041027 7.7606401 1.0557289
24.041027 7.7606401 1.1557289
24.041027 7.7606401 1.255729
24.041027 7.7606401 1.355729
24.041027 7.7606401 1.455729
24.041027 7.7606401 1.555729
24.041027 7.7606401 1.6557291
24.041027 7.7606401 1.7557291
24.050373 7.7999916 0.055728853
24.050373 7.7999916 0.15572885
24.050373 7.7999916 0.25572884
24.050373 7.7999916 0.35572883
24.050373 7.7999916 0.45572883
24.050373 7.7999916 0.55572885
24.050373 7.7999916 0.65572888
24.050373 7.7999916 0.7557289
24.050373 7.7999916 0.85572892
24.050373 7.7999916 0.95572895
24.050373 7.7999916 1.0557289
24.050373 7.7999916 1.1557289
24.050373 7.7999916 1.255729
24.050373 7.7999916 1.355729
24.050373 7.7999916 1.455729
24.050373 7.7999916 1.555729
24.050373 7.7999916 1.6557291
24.050373 7.7999916 1.7557291
24.055744 7.8400788 0.055728853
24.055744 7.8400788 0.15572885
24.055744 7.8400788 0.25572884
24.055744 7.8400788 0.35572883
24.055744 7.8400788 0.45572883
24.055744 7.8400788 0.55572885
24.055744 7.8400788 0.65572888
24.055744 7.8400788 0.7557289
24.055744 7.8400788 0.85572892
24.055744 7.8400788 0.95572895
24.055744 7.8400788 1.0557289
24.055744 7.8400788 1.1557289
24.055744 7.8400788 1.255729
24.055744 7.8400788 1.355729
24.055744 7.8400788 1.455729
24.055744 7.8400788 1.555729
24.055744 7.8400788 1.6557291
24.055744 7.8400788 1.7557291
27.343365 -1.6163688 0.9902451
27.343365 -1.6163688 0.9902451
27.343365 -1.6163688 0.9902451
27.343365 -1.6163688 0.9902451
27.343365 -1.6163688 0.9902451
27.343365 -1.6163688 0.9902451
27.343365 -1.6163688 0.9902451
27.343365 -1.6163688 0.9902451
27.343365 -1.6163688 0.9902451
27.343365 -1.6163688 0.9902451
27.343365 -1.6163688 0.9902451
27.343365 -1.6163688 0.9902451
27.343365 -1.6163688 0.9902451
27.343365 -1.6163688 0.9902451
27.343365 -1.6163688 0.9902451
27.343365 -1.6163688 0.9902451
27.343365 -1.6163688 0.9902451
27.343365 -1.6163688 0.9902451
27.343365 -1.6163688 0.9902451
27.343365 -1.6163688 0.9902451
27.343365 -1.6163688 0.9902451
27.343365 -1.6163688 0.9902451
27.343365 -1.6163688 0.9902451
27.343365 -1.6163688 0.9902451
27.343365 -1.6163688 0.9902451
27.343365 -1.6163688 0.9902451
27.343365 -1.6163688 0.9902451
27.343365 -1.6163688 0.9902451
27.343365 -1.6163688 0.9902451
27.343365 -1.6163688 0.9902451
27.343365 -1.6163688 0.9902451
27.343365 -1.6163688 0.9902451
27.343365 -1.6163688 0.9902451
27.343365 -1.6163688 0.9902451
27.343365 -1.6163688 0.9902451
27.343365 -1.6163688 0.9902451
27.343365 -1.6163688 0.9902451
27.343365 -1.6163688 0.9902451
27.343365 -1.6163688 0.9902451
27.343365 -1.6163688 0.9902451
27.343365 -1.6163688 0.9902451
27.343365 -1.6163688 0.9902451
27.343365 -1.6163688 0.9902451
27.343365 -1.6163688 0.9902451
27.343365 -1.6163688 0.9902451
27.343365 -1.6163688 0.9902451
27.343365 -1.6163688 0.9902451
27.343365 -1.6163688 0.9902451
27.343365 -1.6163688 0.9902451
27.343365 -1.6163688 0.9902451
27.343365 -1.6163688 0.9902451
27.343365 -1.6163688 0.9902451
27.343365 -1.6163688 0.9902451
27.343365 -1.6163688 0.9902451
27.343365 -1.6163688 0.9902451
27.343365 -1.6163688 0.9902451
27.343365 -1.6163688 0.9902451
27.343365 -1.6163688 0.9902451
27.343365 -1.6163688 0.9902451
27.343365 -1.6163688 0.9902451
27.343365 -1.6163688 0.9902451
27.343365 -1.6163688 0.9902451
27.343365 -1.6163688 0.9902451
27.432217 -1.6163688 0.98579878
27.431772 -1.6074984 0.98579878
27.430445 -1.5987166 0.98579878
27.428247 -1.5901111 0.98579878
27.425203 -1.5817682 0.98579878
27.421339 -1.5737709 0.98579878
27.416697 -1.5661991 0.98579878
27.411322 -1.5591288 0.98579878
27.405268 -1.5526302 0.98579878
27.398596 -1.5467685 0.98579878
27.391371 -1.5416024 0.98579878
27.383667 -1.5371832 0.98579878
27.375561 -1.5335552 0.98579878
27.367132 -1.5307547 0.98579878
27.358467 -1.5288095 0.98579878
27.349649 -1.5277393 0.98579878
27.340771 -1.5275546 0.98579878
27.331917 -1.5282574 0.98579878
27.323177 -1.5298405 0.98579878
27.31464 -1.5322881 0.98579878
27.306389 -1.5355759 0.98579878
27.298508 -1.5396708 0.98579878
27.291075 -1.5445322 0.98579878
27.284164 -1.5501113 0.98579878
27.277845 -1.5563525 0.98579878
27.272181 -1.5631933 0.98579878
27.267229 -1.5705653 0.98579878
27.263037 -1.5783951 0.98579878
27.259645 -1.5866044 0.98579878
27.257093 -1.5951109 0.98579878
27.255402 -1.6038299 0.98579878
27.254589 -1.6126741 0.98579878
27.254663 -1.6215553 0.98579878
27.255625 -1.6303847 0.98579878
27.257463 -1.6390741 0.98579878
27.260159 -1.6475365 0.98579878
27.263685 -1.6556876 0.98579878
27.268009 -1.6634457 0.98579878
27.273085 -1.6707335 0.98579878
27.278864 -1.6774781 0.98579878
27.285288 -1.6836121 0.98579878
27.29229 -1.6890743 0.98579878
27.299805 -1.69381 0.98579878
27.307753 -1.6977719 0.98579878
27.316057 -1.7009206 0.98579878
27.324635 -1.7032243 0.98579878
27.333399 -1.7046602 0.98579878
27.342264 -1.705214 0.98579878
27.351139 -1.70488 0.98579878
27.359936 -1.7036617 0.98579878
27.368568 -1.7015712 0.98579878
27.376949 -1.6986294 0.98579878
27.384993 -1.6948657 0.98579878
27.392622 -1.6903176 0.98579878
27.399757 -1.6850307 0.98579878
27.406332 -1.6790576 0.98579878
27.412275 -1.6724583 0.98579878
27.41753 -1.6652986 0.98579878
27.422045 -1.6576499 0.98579878
27.425774 -1.6495887 0.98579878
27.428679 -1.6411957 0.98579878
27.430731 -1.6325545 0.98579878
27.43191 -1.6237518 0.98579878
27.520182 -1.6163688 0.97250432
27.519299 -1.5987166 0.97250432
27.516657 -1.5812408 0.97250432
27.512283 -1.564116 0.97250432
27.506224 -1.5475132 0.97250432
27.498535 -1.5315986 0.97250432
27.489298 -1.5165308 0.97250432
27.478601 -1.5024606 0.97250432
27.466555 -1.4895285 0.97250432
27.453276 -1.4778638 0.97250432
27.438898 -1.4675829 0.97250432
27.423569 -1.4587888 0.97250432
27.407436 -1.4515691 0.97250432
27.390663 -1.4459959 0.97250432
27.373417 -1.4421252 0.97250432
27.355873 -1.4399954 0.97250432
27.338202 -1.4396279 0.97250432
27.320583 -1.4410262 0.97250432
27.303192 -1.4441767 0.97250432
27.286201 -1.4490474 0.97250432
27.269783 -1.4555901 0.97250432
27.254099 -1.4637393 0.97250432
27.239307 -1.4734135 0.97250432
27.225555 -1.4845159 0.97250432
27.212982 -1.4969358 0.97250432
27.20171 -1.5105491 0.97250432
27.191853 -1.5252197 0.97250432
27.18351 -1.5408009 0.97250432
27.176764 -1.5571373 0.97250432
27.171684 -1.5740654 0.97250432
27.168318 -1.5914164 0.97250432
27.1667 -1.6090165 0.97250432
27.166849 -1.6266901 0.97250432
27.168762 -1.6442606 0.97250432
27.172419 -1.6615524 0.97250432
27.177784 -1.6783928 0.97250432
27.184803 -1.6946135 0.97250432
27.193407 -1.7100523 0.97250432
27.203508 -1.724555 0.97250432
27.215008 -1.7379769 0.97250432
27.227789 -1.7501836 0.97250432
27.241726 -1.7610533 0.97250432
27.256678 -1.7704774 0.97250432
27.272497 -1.7783618 0.97250432
27.289022 -1.7846274 0.97250432
27.306091 -1.789212 0.97250432
27.323534 -1.7920696 0.97250432
27.341173 -1.7931715 0.97250432
27.358835 -1.7925069 0.97250432
27.376343 -1.7900825 0.97250432
27.39352 -1.7859224 0.97250432
27.410196 -1.7800682 0.97250432
27.426207 -1.7725782 0.97250432
27.441387 -1.7635275 0.97250432
27.455589 -1.7530065 0.97250432
27.468668 -1.7411202 0.97250432
27.480497 -1.7279874 0.97250432
27.490955 -1.7137394 0.97250432
27.499939 -1.6985185 0.97250432
27.507359 -1.6824768 0.97250432
27.513138 -1.6657746 0.97250432
27.517223 -1.6485786 0.97250432
27.519569 -1.631061 0.97250432
27.606379 -1.6163688 0.95049447
27.605064 -1.5901111 0.95049447
27.601135 -1.564116 0.95049447
27.594631 -1.5386429 0.95049447
27.585617 -1.5139463 0.95049447
27.574181 -1.4902732 0.95049447
27.56044 -1.46786 0.95049447
27.544529 -1.4469305 0.95049447
27.526608 -1.4276941 0.95049447
27.506857 -1.4103428 0.95049447
27.485472 -1.3950502 0.95049447
27.462667 -1.3819689 0.95049447
27.438669 -1.3712295 0.95049447
27.413721 -1.3629396 0.95049447
27.388069 -1.3571818 0.95049447
27.361969 -1.3540137 0.95049447
27.335684 -1.353467 0.95049447
27.309477 -1.3555472 0.95049447
27.283607 -1.3602333 0.95049447
27.258335 -1.3674787 0.95049447
27.233912 -1.3772109 0.95049447
27.210583 -1.3893327 0.95049447
27.188581 -1.403723 0.95049447
27.168125 -1.4202379 0.95049447
27.14942 -1.4387125 0.95049447
27.132652 -1.4589622 0.95049447
27.11799 -1.4807847 0.95049447
27.105581 -1.5039618 0.95049447
27.095547 -1.5282621 0.95049447
27.08799 -1.5534427 0.95049447
27.082983 -1.579252 0.95049447
27.080578 -1.6054323 0.95049447
27.080799 -1.6317217 0.95049447
27.083643 -1.6578578 0.95049447
27.089083 -1.6835793 0.95049447
27.097063 -1.7086294 0.95049447
27.107504 -1.7327574 0.95049447
27.120302 -1.7557228 0.95049447
27.135328 -1.7772956 0.95049447
27.152433 -1.7972605 0.95049447
27.171448 -1.8154181 0.95049447
27.192177 -1.8315868 0.95049447
27.214418 -1.8456051 0.95049447
27.237949 -1.8573329 0.95049447
27.262531 -1.8666532 0.95049447
27.287922 -1.8734727 0.95049447
27.313866 -1.8777232 0.95049447
27.340105 -1.8793625 0.95049447
27.366377 -1.878374 0.95049447
27.39242 -1.8747675 0.95049447
27.417971 -1.8685794 0.95049447
27.442778 -1.8598711 0.95049447
27.466591 -1.84873 0.95049447
27.489172 -1.8352671 0.95049447
27.510298 -1.819617 0.95049447
27.529755 -1.8019363 0.95049447
27.547348 -1.7824013 0.95049447
27.562906 -1.7612073 0.95049447
27.576269 -1.7385664 0.95049447
27.587305 -1.7147043 0.95049447
27.595903 -1.6898597 0.95049447
27.601978 -1.6642809 0.95049447
27.605469 -1.6382234 0.95049447
27.689949 -1.6163688 0.91998911
27.688217 -1.5817682 0.91998911
27.683041 -1.5475132 0.91998911
27.674469 -1.5139463 0.91998911
27.66259 -1.4814028 0.91998911
27.64752 -1.4502077 0.91998911
27.629412 -1.420673 0.91998911
27.608446 -1.3930935 0.91998911
27.584831 -1.3677449 0.91998911
27.558804 -1.3448806 0.91998911
27.530624 -1.3247287 0.91998911
27.500574 -1.3074909 0.91998911
27.468952 -1.2933394 0.91998911
27.436075 -1.2824154 0.91998911
27.402273 -1.2748281 0.91998911
27.367882 -1.2706535 0.91998911
27.333244 -1.269933 0.91998911
27.29871 -1.2726741 0.91998911
27.26462 -1.2788492 0.91998911
27.231318 -1.2883968 0.91998911
27.199135 -1.3012213 0.91998911
27.168394 -1.3171947 0.91998911
27.1394 -1.3361572 0.91998911
27.112444 -1.3579196 0.91998911
27.087795 -1.3822644 0.91998911
27.065702 -1.4089481 0.91998911
27.046381 -1.4377043 0.91998911
27.030027 -1.4682457 0.91998911
27.016806 -1.5002673 0.91998911
27.006847 -1.5334487 0.91998911
27.00025 -1.5674586 0.91998911
26.997082 -1.6019573 0.91998911
26.997372 -1.6366 0.91998911
27.00112 -1.6710405 0.91998911
27.008287 -1.7049347 0.91998911
27.018805 -1.7379441 0.91998911
27.032562 -1.7697387 0.91998911
27.049427 -1.8000009 0.91998911
27.069227 -1.8284283 0.91998911
27.091768 -1.8547368 0.91998911
27.116821 -1.8786637 0.91998911
27.14414 -1.8999698 0.91998911
27.173449 -1.9184422 0.91998911
27.204454 -1.9338965 0.91998911
27.236847 -1.9461782 0.91998911
27.270306 -1.9551644 0.91998911
27.304493 -1.9607656 0.91998911
27.339069 -1.9629257 0.91998911
27.37369 -1.9616231 0.91998911
27.408007 -1.9568708 0.91998911
27.441677 -1.9487164 0.91998911
27.474365 -1.9372412 0.91998911
27.505745 -1.92256 0.91998911
27.535501 -1.9048195 0.91998911
27.563337 -1.8841968 0.91998911
27.588978 -1.8608981 0.91998911
27.612162 -1.8351562 0.91998911
27.632662 -1.8072282 0.91998911
27.65027 -1.7773932 0.91998911
27.664814 -1.7459493 0.91998911
27.676144 -1.7132107 0.91998911
27.684149 -1.6795045 0.91998911
27.688749 -1.6451674 0.91998911
27.770056 -1.6163688 0.88129318
27.767923 -1.5737709 0.88129318
27.761549 -1.5315986 0.88129318
27.750998 -1.4902732 0.88129318
27.736372 -1.4502077 0.88129318
27.717821 -1.4118025 0.88129318
27.695528 -1.3754413 0.88129318
27.669716 -1.3414874 0.88129318
27.640642 -1.3102798 0.88129318
27.608599 -1.2821307 0.88129318
27.573906 -1.2573212 0.88129318
27.536909 -1.2360992 0.88129318
27.497978 -1.2186768 0.88129318
27.457504 -1.2052279 0.88129318
27.415888 -1.195887 0.88129318
27.373547 -1.1907474 0.88129318
27.330906 -1.1898605 0.88129318
27.288387 -1.193235 0.88129318
27.24642 -1.2008375 0.88129318
27.20542 -1.2125918 0.88129318
27.165798 -1.2283804 0.88129318
27.127953 -1.2480458 0.88129318
27.092257 -1.2713913 0.88129318
27.059071 -1.2981837 0.88129318
27.028727 -1.3281552 0.88129318
27.001524 -1.3610065 0.88129318
26.977739 -1.3964093 0.88129318
26.957605 -1.4340098 0.88129318
26.941328 -1.4734324 0.88129318
26.929066 -1.5142832 0.88129318
26.920944 -1.5561539 0.88129318
26.917044 -1.5986264 0.88129318
26.917402 -1.6412761 0.88129318
26.922016 -1.683677 0.88129318
26.930841 -1.7254052 0.88129318
26.943789 -1.7660441 0.88129318
26.960726 -1.8051875 0.88129318
26.981489 -1.8424442 0.88129318
27.005867 -1.8774421 0.88129318
27.033615 -1.9098314 0.88129318
27.064461 -1.9392886 0.88129318
27.098093 -1.9655192 0.88129318
27.134174 -1.9882613 0.88129318
27.172346 -2.0072875 0.88129318
27.212229 -2.0224078 0.88129318
27.25342 -2.0334711 0.88129318
27.295509 -2.0403669 0.88129318
27.338078 -2.0430262 0.88129318
27.380699 -2.0414226 0.88129318
27.422947 -2.0355718 0.88129318
27.464399 -2.0255327 0.88129318
27.504642 -2.0114052 0.88129318
27.543276 -1.9933307 0.88129318
27.57991 -1.9714898 0.88129318
27.614182 -1.9461006 0.88129318
27.645746 -1.9174168 0.88129318
27.67429 -1.885725 0.88129318
27.699528 -1.851342 0.88129318
27.721207 -1.8146112 0.88129318
27.739111 -1.7758995 0.88129318
27.753059 -1.735594 0.88129318
27.762915 -1.6940972 0.88129318
27.768579 -1.6518238 0.88129318
27.845898 -1.6163688 0.83479327
27.843388 -1.5661991 0.83479327
27.83588 -1.5165308 0.83479327
27.823454 -1.46786 0.83479327
27.806229 -1.420673 0.83479327
27.78438 -1.3754413 0.83479327
27.758123 -1.3326169 0.83479327
27.727724 -1.2926277 0.83479327
27.693483 -1.2558732 0.83479327
27.655745 -1.2227206 0.83479327
27.614885 -1.1935012 0.83479327
27.571312 -1.1685071 0.83479327
27.525461 -1.1479878 0.83479327
27.477791 -1.1321484 0.83479327
27.42878 -1.1211472 0.83479327
27.378912 -1.1150939 0.83479327
27.328691 -1.1140494 0.83479327
27.278616 -1.1180239 0.83479327
27.229187 -1.1269777 0.83479327
27.180901 -1.1408212 0.83479327
27.134237 -1.1594163 0.83479327
27.089663 -1.1825771 0.83479327
27.047623 -1.2100722 0.83479327
27.008539 -1.2416269 0.83479327
26.972799 -1.2769258 0.83479327
26.940763 -1.3156163 0.83479327
26.91275 -1.3573118 0.83479327
26.889038 -1.4015958 0.83479327
26.869867 -1.4480257 0.83479327
26.855425 -1.4961376 0.83479327
26.84586 -1.5454509 0.83479327
26.841267 -1.5954727 0.83479327
26.841688 -1.6457033 0.83479327
26.847122 -1.6956408 0.83479327
26.857515 -1.7447863 0.83479327
26.872763 -1.7926486 0.83479327
26.892714 -1.8387496 0.83479327
26.917166 -1.8826287 0.83479327
26.945877 -1.9238473 0.83479327
26.978559 -1.9619938 0.83479327
27.014887 -1.9966869 0.83479327
27.054495 -2.02758 0.83479327
27.096991 -2.0543644 0.83479327
27.141949 -2.0767727 0.83479327
27.188919 -2.0945804 0.83479327
27.237432 -2.1076102 0.83479327
27.287003 -2.1157317 0.83479327
27.337137 -2.1188638 0.83479327
27.387335 -2.1169751 0.83479327
27.437092 -2.1100845 0.83479327
27.485914 -2.0982609 0.83479327
27.53331 -2.0816221 0.83479327
27.57881 -2.0603352 0.83479327
27.621956 -2.0346119 0.83479327
27.662317 -2.0047097 0.83479327
27.699493 -1.9709275 0.83479327
27.733112 -1.9336026 0.83479327
27.762835 -1.893108 0.83479327
27.788368 -1.8498484 0.83479327
27.809454 -1.8042558 0.83479327
27.825882 -1.7567861 0.83479327
27.83749 -1.7079133 0.83479327
27.84416 -1.6581258 0.83479327
27.916721 -1.6163688 0.78095388
27.913857 -1.5591288 0.78095388
27.905293 -1.5024606 0.78095388
27.891113 -1.4469305 0.78095388
27.87146 -1.3930935 0.78095388
27.846531 -1.3414874 0.78095388
27.816576 -1.2926277 0.78095388
27.781891 -1.2470028 0.78095388
27.742825 -1.2050685 0.78095388
27.699768 -1.1672437 0.78095388
27.653151 -1.1339065 0.78095388
27.603437 -1.1053898 0.78095388
27.551125 -1.0819788 0.78095388
27.496737 -1.0639071 0.78095388
27.440817 -1.0513554 0.78095388
27.383923 -1.0444492 0.78095388
27.326622 -1.0432575 0.78095388
27.269491 -1.047792 0.78095388
27.213097 -1.0580076 0.78095388
27.158005 -1.0738022 0.78095388
27.104765 -1.0950179 0.78095388
27.053907 -1.1214427 0.78095388
27.005943 -1.1528127 0.78095388
26.961351 -1.1888144 0.78095388
26.920576 -1.2290881 0.78095388
26.884024 -1.2732311 0.78095388
26.852062 -1.3208029 0.78095388
26.82501 -1.3713279 0.78095388
26.803137 -1.4243011 0.78095388
26.786661 -1.4791934 0.78095388
26.775747 -1.5354564 0.78095388
26.770504 -1.5925277 0.78095388
26.770987 -1.6498374 0.78095388
26.777187 -1.7068126 0.78095388
26.789045 -1.7628841 0.78095388
26.806442 -1.8174918 0.78095388
26.829203 -1.8700898 0.78095388
26.857101 -1.9201527 0.78095388
26.889858 -1.9671804 0.78095388
26.927147 -2.0107028 0.78095388
26.968594 -2.0502853 0.78095388
27.013786 -2.0855322 0.78095388
27.062269 -2.1160913 0.78095388
27.113564 -2.1416574 0.78095388
27.167152 -2.1619749 0.78095388
27.222502 -2.176841 0.78095388
27.27906 -2.1861072 0.78095388
27.33626 -2.1896806 0.78095388
27.393532 -2.1875257 0.78095388
27.450302 -2.1796639 0.78095388
27.506002 -2.1661739 0.78095388
27.56008 -2.1471906 0.78095388
27.61199 -2.1229033 0.78095388
27.661217 -2.093555 0.78095388
27.707268 -2.0594387 0.78095388
27.749683 -2.0208955 0.78095388
27.788038 -1.9783105 0.78095388
27.821951 -1.932109 0.78095388
27.851082 -1.8827527 0.78095388
27.875139 -1.8307348 0.78095388
27.893883 -1.7765751 0.78095388
27.907127 -1.7208146 0.78095388
27.914738 -1.6640105 0.78095388
27.981813 -1.6163688 0.72031307
27.978624 -1.5526302 0.72031307
27.969088 -1.4895285 0.72031307
27.953299 -1.4276941 0.72031307
27.931416 -1.3677449 0.72031307
27.903656 -1.3102798 0.72031307
27.8703 -1.2558732 0.72031307
27.831678 -1.2050685 0.72031307
27.788177 -1.1583732 0.72031307
27.740231 -1.1162543 0.72031307
27.68832 -1.0791322 0.72031307
27.632963 -1.0473781 0.72031307
27.574711 -1.0213091 0.72031307
27.514149 -1.0011857 0.72031307
27.45188 -0.98720908 0.72031307
27.388527 -0.97951883 0.72031307
27.324722 -0.97819173 0.72031307
27.261105 -0.98324114 0.72031307
27.198307 -0.99461651 0.72031307
27.136961 -1.0122043 0.72031307
27.077677 -1.0358286 0.72031307
27.021046 -1.0652535 0.72031307
26.967636 -1.1001849 0.72031307
26.917982 -1.1402738 0.72031307
26.872576 -1.1851197 0.72031307
26.831875 -1.2342745 0.72031307
26.796286 -1.2872472 0.72031307
26.766161 -1.3435081 0.72031307
26.741804 -1.4024955 0.72031307
26.723457 -1.4636198 0.72031307
26.711306 -1.5262704 0.72031307
26.705467 -1.5898211 0.72031307
26.706005 -1.6536372 0.72031307
26.71291 -1.7170807 0.72031307
26.726112 -1.7795181 0.72031307
26.745485 -1.8403254 0.72031307
26.77083 -1.8988949 0.72031307
26.801895 -1.9546416 0.72031307
26.838371 -2.0070083 0.72031307
26.879892 -2.0554719 0.72031307
26.926046 -2.0995481 0.72031307
26.976368 -2.1387966 0.72031307
27.030357 -2.1728251 0.72031307
27.087473 -2.2012937 0.72031307
27.147146 -2.223918 0.72031307
27.20878 -2.2404718 0.72031307
27.271759 -2.2507899 0.72031307
27.335453 -2.2547691 0.72031307
27.399227 -2.2523694 0.72031307
27.462442 -2.2436152 0.72031307
27.524467 -2.2285938 0.72031307
27.584682 -2.2074552 0.72031307
27.642487 -2.1804104 0.72031307
27.697304 -2.1477304 0.72031307
27.748583 -2.1097407 0.72031307
27.795813 -2.0668218 0.72031307
27.838524 -2.019402 0.72031307
27.876286 -1.9679551 0.72031307
27.908724 -1.9129955 0.72031307
27.935513 -1.855072 0.72031307
27.956385 -1.7947634 0.72031307
27.97113 -1.7326725 0.72031307
27.979607 -1.6694194 0.72031307
28.040527 -1.6163688 0.65347672
28.037045 -1.5467685 0.65347672
28.02663 -1.4778638 0.65347672
28.00939 -1.4103429 0.65347672
27.985495 -1.3448806 0.65347672
27.955183 -1.2821308 0.65347672
27.918758 -1.2227206 0.65347672
27.876585 -1.1672437 0.65347672
27.829082 -1.1162543 0.65347672
27.776728 -1.0702618 0.65347672
27.720043 -1.0297259 0.65347672
27.659595 -0.99505156 0.65347672
27.595987 -0.96658516 0.65347672
27.529856 -0.94461113 0.65347672
27.461859 -0.92934918 0.65347672
27.392679 -0.92095172 0.65347672
27.323008 -0.91950262 0.65347672
27.253538 -0.92501634 0.65347672
27.184967 -0.93743783 0.65347672
27.117979 -0.95664299 0.65347672
27.053242 -0.98243988 0.65347672
26.991404 -1.0145707 0.65347672
26.933083 -1.0527146 0.65347672
26.878862 -1.0964904 0.65347672
26.829281 -1.1454605 0.65347672
26.784836 -1.1991358 0.65347672
26.745974 -1.2569798 0.65347672
26.713079 -1.3184149 0.65347672
26.686481 -1.3828269 0.65347672
26.666449 -1.4495724 0.65347672
26.653179 -1.5179845 0.65347672
26.646805 -1.5873797 0.65347672
26.64739 -1.6570644 0.65347672
26.65493 -1.7263427 0.65347672
26.669348 -1.7945219 0.65347672
26.6905 -1.8609213 0.65347672
26.718178 -1.924877 0.65347672
26.7521 -1.9857504 0.65347672
26.791931 -2.042933 0.65347672
26.837271 -2.0958533 0.65347672
26.887667 -2.1439831 0.65347672
26.942617 -2.186841 0.65347672
27.001572 -2.223999 0.65347672
27.063942 -2.2550857 0.65347672
27.129103 -2.2797906 0.65347672
27.196404 -2.2978668 0.65347672
27.265175 -2.3091338 0.65347672
27.334726 -2.3134787 0.65347672
27.404364 -2.3108585 0.65347672
27.473392 -2.3012991 0.65347672
27.541122 -2.2848961 0.65347672
27.606874 -2.2618136 0.65347672
27.669996 -2.2322819 0.65347672
27.729853 -2.1965961 0.65347672
27.785849 -2.1551132 0.65347672
27.837421 -2.108247 0.65347672
27.88406 -2.0564663 0.65347672
27.925295 -2.0002885 0.65347672
27.960716 -1.9402744 0.65347672
27.989967 -1.8770241 0.65347672
28.01276 -1.8111693 0.65347672
28.028864 -1.7433681 0.65347672
28.038116 -1.6742982 0.65347672
28.092278 -1.6163688 0.58111262
28.088535 -1.5416024 0.58111262
28.077349 -1.4675829 0.58111262
28.058828 -1.3950502 0.58111262
28.033157 -1.3247287 0.58111262
28.000597 -1.2573212 0.58111262
27.961468 -1.1935012 0.58111262
27.916164 -1.1339064 0.58111262
27.865137 -1.0791322 0.58111262
27.808895 -1.0297258 0.58111262
27.748003 -0.98618108 0.58111262
27.683067 -0.94893295 0.58111262
27.614738 -0.91835356 0.58111262
27.543697 -0.89474851 0.58111262
27.470655 -0.87835366 0.58111262
27.396341 -0.86933291 0.58111262
27.321497 -0.86777622 0.58111262
27.246872 -0.87369919 0.58111262
27.17321 -0.8870427 0.58111262
27.10125 -0.90767342 0.58111262
27.031708 -0.93538517 0.58111262
26.965279 -0.96990103 0.58111262
26.90263 -1.0108762 0.58111262
26.844383 -1.0579011 0.58111262
26.791122 -1.1105063 0.58111262
26.74338 -1.1681657 0.58111262
26.701632 -1.2303034 0.58111262
26.666294 -1.2962986 0.58111262
26.637724 -1.3654917 0.58111262
26.616203 -1.4371916 0.58111262
26.601948 -1.5106817 0.58111262
26.5951 -1.585228 0.58111262
26.59573 -1.6600852 0.58111262
26.603828 -1.7345057 0.58111262
26.619318 -1.8077457 0.58111262
26.64204 -1.8790736 0.58111262
26.671772 -1.9477768 0.58111262
26.708212 -2.0131686 0.58111262
26.750999 -2.0745955 0.58111262
26.799706 -2.1314442 0.58111262
26.853842 -2.1831465 0.58111262
26.91287 -2.2291856 0.58111262
26.976202 -2.2691016 0.58111262
27.0432 -2.302496 0.58111262
27.113197 -2.3290346 0.58111262
27.185495 -2.3484523 0.58111262
27.259371 -2.3605556 0.58111262
27.334085 -2.3652232 0.58111262
27.408892 -2.3624084 0.58111262
27.483044 -2.3521395 0.58111262
27.555801 -2.3345191 0.58111262
27.626434 -2.3097231 0.58111262
27.694241 -2.2779994 0.58111262
27.758541 -2.2396648 0.58111262
27.818691 -2.1951027 0.58111262
27.874094 -2.1447577 0.58111262
27.924194 -2.0891335 0.58111262
27.968491 -2.0287857 0.58111262
28.00654 -1.964317 0.58111262
28.037964 -1.8963717 0.58111262
28.062447 -1.8256288 0.58111262
28.079746 -1.752795 0.58111262
28.089687 -1.678598 0.58111262
28.136541 -1.6163688 0.5039438
28.13258 -1.5371832 0.5039438
28.120731 -1.4587888 0.5039438
28.101116 -1.3819689 0.5039438
28.073929 -1.3074909 0.5039438
28.039444 -1.2360992 0.5039438
27.998003 -1.1685071 0.5039438
27.95002 -1.1053898 0.5039438
27.895977 -1.0473781 0.5039438
27.836412 -0.99505156 0.5039438
27.771919 -0.94893295 0.5039438
27.703146 -0.90948325 0.5039438
27.630779 -0.87709641 0.5039438
27.555538 -0.8520962 0.5039438
27.478178 -0.83473229 0.5039438
27.399471 -0.82517833 0.5039438
27.320204 -0.8235296 0.5039438
27.241167 -0.82980275 0.5039438
27.163153 -0.84393489 0.5039438
27.086939 -0.86578506 0.5039438
27.013287 -0.89513469 0.5039438
26.942932 -0.93169069 0.5039438
26.876579 -0.97508776 0.5039438
26.81489 -1.0248923 0.5039438
26.75848 -1.0806066 0.5039438
26.707916 -1.141674 0.5039438
26.6637 -1.2074845 0.5039438
26.626276 -1.2773805 0.5039438
26.596016 -1.3506634 0.5039438
26.573223 -1.4266012 0.5039438
26.558125 -1.5044351 0.5039438
26.550873 -1.5833873 0.5039438
26.55154 -1.6626691 0.5039438
26.560118 -1.7414883 0.5039438
26.576523 -1.8190573 0.5039438
26.600588 -1.8946012 0.5039438
26.632076 -1.967365 0.5039438
26.67067 -2.0366218 0.5039438
26.715986 -2.1016796 0.5039438
26.76757 -2.1618884 0.5039438
26.824909 -2.2166467 0.5039438
26.887426 -2.2654071 0.5039438
26.9545 -2.3076823 0.5039438
27.025459 -2.3430502 0.5039438
27.099594 -2.3711576 0.5039438
27.176165 -2.3917232 0.5039438
27.254406 -2.4045417 0.5039438
27.333536 -2.4094853 0.5039438
27.412766 -2.4065042 0.5039438
27.491301 -2.3956282 0.5039438
27.568357 -2.3769665 0.5039438
27.643166 -2.3507047 0.5039438
27.714979 -2.317106 0.5039438
27.783081 -2.2765057 0.5039438
27.846786 -2.2293096 0.5039438
27.905464 -2.1759889 0.5039438
27.958525 -2.1170769 0.5039438
28.005438 -2.0531621 0.5039438
28.045738 -1.984883 0.5039438
28.07902 -1.9129217 0.5039438
28.10495 -1.8379973 0.5039438
28.12327 -1.7608587 0.5039438
28.133799 -1.6822762 0.5039438
28.172882 -1.6163688 0.42274135
28.168739 -1.5335552 0.42274135
28.156347 -1.4515691 0.42274135
28.135834 -1.3712295 0.42274135
28.107401 -1.2933394 0.42274135
28.071335 -1.2186768 0.42274135
28.027996 -1.1479878 0.42274135
27.977816 -1.0819788 0.42274135
27.921295 -1.0213091 0.42274135
27.859001 -0.9665851 0.42274135
27.791555 -0.91835356 0.42274135
27.719631 -0.87709641 0.42274135
27.643948 -0.84322572 0.42274135
27.56526 -0.81708008 0.42274135
27.484356 -0.79892063 0.42274135
27.402042 -0.78892893 0.42274135
27.319143 -0.78720468 0.42274135
27.236486 -0.79376519 0.42274135
27.154896 -0.80854487 0.42274135
27.07519 -0.8313961 0.42274135
26.998163 -0.86209047 0.42274135
26.924585 -0.9003213 0.42274135
26.855192 -0.94570667 0.42274135
26.790676 -0.99779302 0.42274135
26.731684 -1.05606 0.42274135
26.678802 -1.1199253 0.42274135
26.632561 -1.188751 0.42274135
26.59342 -1.2618493 0.42274135
26.561775 -1.3384898 0.42274135
26.537937 -1.4179068 0.42274135
26.522148 -1.4993067 0.42274135
26.514565 -1.5818762 0.42274135
26.515261 -1.6647904 0.42274135
26.524233 -1.7472208 0.42274135
26.541388 -1.8283437 0.42274135
26.566557 -1.9073488 0.42274135
26.599487 -1.9834464 0.42274135
26.639851 -2.0558763 0.42274135
26.687243 -2.1239147 0.42274135
26.74119 -2.186882 0.42274135
26.801155 -2.244149 0.42274135
26.866537 -2.2951434 0.42274135
26.936684 -2.3393557 0.42274135
27.010893 -2.3763442 0.42274135
27.088425 -2.4057391 0.42274135
27.168505 -2.427247 0.42274135
27.25033 -2.4406528 0.42274135
27.333086 -2.445823 0.42274135
27.415945 -2.4427052 0.42274135
27.498077 -2.4313312 0.42274135
27.578665 -2.4118142 0.42274135
27.656902 -2.3843493 0.42274135
27.732006 -2.3492112 0.42274135
27.803226 -2.3067505 0.42274135
27.869852 -2.2573922 0.42274135
27.931217 -2.2016287 0.42274135
27.98671 -2.1400175 0.42274135
28.035772 -2.0731742 0.42274135
28.077917 -2.0017669 0.42274135
28.112724 -1.9265087 0.42274135
28.139843 -1.8481516 0.42274135
28.159002 -1.7674786 0.42274135
28.170013 -1.6852958 0.42274135
28.200935 -1.6163688 0.33831659
28.19665 -1.5307547 0.33831659
28.18384 -1.4459959 0.33831659
28.162632 -1.3629396 0.33831659
28.13324 -1.2824154 0.33831659
28.095953 -1.2052279 0.33831659
28.051147 -1.1321484 0.33831659
27.999269 -1.063907 0.33831659
27.94084 -1.0011858 0.33831659
27.876438 -0.94461113 0.33831659
27.806711 -0.89474851 0.33831659
27.732355 -0.85209614 0.33831659
27.654112 -0.81708008 0.33831659
27.572763 -0.79005027 0.33831659
27.489122 -0.77127671 0.33831659
27.404026 -0.76094711 0.33831659
27.318323 -0.75916457 0.33831659
27.232872 -0.76594692 0.33831659
27.148523 -0.78122646 0.33831659
27.06612 -0.8048504 0.33831659
26.98649 -0.83658278 0.33831659
26.910423 -0.8761065 0.33831659
26.838684 -0.92302668 0.33831659
26.771986 -0.97687441 0.33831659
