# .PCD v0.7 - Point Cloud Data file format
VERSION 0.7
FIELDS x y z
SIZE 4 4 4
TYPE F F F
COUNT 1 1 1
WIDTH 1553
HEIGHT 1
VIEWPOINT 0 0 0 1 0 0 0
POINTS 1553
DATA ascii
21.126965 1.4692132 0.85331601
21.127573 1.3968015 0.85331601
21.135408 1.3248123 0.85331601
21.150391 1.2539649 0.85331601
21.172373 1.1849672 0.85331601
21.201132 1.1185086 0.85331601
21.236382 1.055253 0.85331601
21.277771 0.9958328 0.85331601
21.324884 0.94084138 0.85331601
21.377254 0.89082825 0.85331601
21.434355 0.84629309 0.85331601
21.495615 0.80768102 0.85331601
21.560427 0.77537781 0.85331601
21.628138 0.74970615 0.85331601
21.698072 0.73092258 0.85331601
21.769535 0.71921474 0.85331601
21.841808 0.71469969 0.85331601
21.914171 0.71742249 0.85331601
21.985901 0.7273559 0.85331601
22.05628 0.74440074 0.85331601
22.124607 0.7683866 0.85331601
22.190197 0.79907399 0.85331601
22.252398 0.83615613 0.85331601
22.310583 0.87926263 0.85331601
22.364176 0.92796266 0.85331601
22.412638 0.98176968 0.85331601
22.455486 1.0401461 0.85331601
22.492294 1.1025087 0.85331601
22.522692 1.1682342 0.85331601
22.546375 1.2366661 0.85331601
22.563108 1.3071204 0.85331601
22.572725 1.3788935 0.85331601
22.57674 1.4390898 0.78073543
22.573112 1.5115644 0.78073543
22.562269 1.5833149 0.78073543
22.544315 1.6536243 0.78073543
22.519434 1.7217901 0.78073543
22.487869 1.7871313 0.78073543
22.449942 1.848995 0.78073543
22.406025 1.9067631 0.78073543
22.356562 1.9598583 0.78073543
22.302046 2.00775 0.78073543
22.243019 2.0499601 0.78073543
22.180075 2.0860665 0.78073543
22.11384 2.1157086 0.78073543
22.044977 2.1385899 0.78073543
21.974173 2.1544824 0.78073543
21.902136 2.1632266 0.78073543
21.829586 2.1647356 0.78073543
21.757248 2.1589942 0.78073543
21.685846 2.1460595 0.78073543
21.616091 2.1260612 0.78073543
21.548679 2.0991991 0.78073543
21.484289 2.0657411 0.78073543
21.423559 2.026022 0.78073543
21.367098 1.9804385 0.78073543
21.31547 1.929446 0.78073543
21.26919 1.873554 0.78073543
21.228722 1.813321 0.78073543
21.194468 1.7493488 0.78073543
21.166773 1.6822766 0.78073543
21.145912 1.6127745 0.78073543
21.132093 1.541537 0.78073543
21.125458 1.4692761 0.78073543
21.126066 1.3967134 0.78073543
21.133919 1.3245742 0.78073543
21.148932 1.2535791 0.78073543
21.170958 1.1844376 0.78073543
21.199778 1.1178405 0.78073543
21.235102 1.0544533 0.78073543
21.276577 0.99490917 0.78073543
21.32379 0.93980312 0.78073543
21.376266 0.88968575 0.78073543
21.433487 0.84505779 0.78073543
21.494875 0.80636525 0.78073543
21.55982 0.77399474 0.78073543
21.627672 0.74826962 0.78073543
21.697754 0.72944689 0.78073543
21.769365 0.71771467 0.78073543
21.841789 0.7131902 0.78073543
21.914303 0.71591866 0.78073543
21.986183 0.72587276 0.78073543
22.056709 0.74295312 0.78073543
22.125177 0.76698899 0.78073543
22.190905 0.79774028 0.78073543
22.253233 0.83489978 0.78073543
22.311541 0.87809604 0.78073543
22.365246 0.92689759 0.78073543
22.413809 0.98081672 0.78073543
22.456747 1.0393149 0.78073543
22.493631 1.1018074 0.78073543
22.524092 1.1676698 0.78073543
22.547825 1.2362443 0.78073543
22.564592 1.3068454 0.78073543
22.574228 1.378768 0.78073543
22.570995 1.4390898 0.70836675
22.567398 1.510991 0.70836675
22.556639 1.5821737 0.70836675
22.538828 1.6519268 0.70836675
22.514143 1.7195534 0.70836675
22.48283 1.7843776 0.70836675
22.4452 1.8457518 0.70836675
22.401632 1.9030628 0.70836675
22.35256 1.9557378 0.70836675
22.298475 2.0032508 0.70836675
22.239916 2.0451269 0.70836675
22.177469 2.0809474 0.70836675
22.111759 2.1103549 0.70836675
22.04344 2.1330554 0.70836675
21.973196 2.1488221 0.70836675
21.90173 2.1574972 0.70836675
21.829754 2.1589942 0.70836675
21.757988 2.1532981 0.70836675
21.687151 2.140466 0.70836675
21.617947 2.120626 0.70836675
21.551071 2.093976 0.70836675
21.487188 2.0607829 0.70836675
21.426939 2.021378 0.70836675
21.370924 1.9761553 0.70836675
21.319704 1.9255662 0.70836675
21.273792 1.8701165 0.70836675
21.233643 1.81036 0.70836675
21.199661 1.7468939 0.70836675
21.172186 1.6803524 0.70836675
21.151489 1.6114004 0.70836675
21.137781 1.5407265 0.70836675
21.131195 1.4690372 0.70836675
21.131802 1.3970487 0.70836675
21.139589 1.3254802 0.70836675
21.154486 1.2550468 0.70836675
21.176336 1.1864525 0.70836675
21.204927 1.1203823 0.70836675
21.239973 1.0574965 0.70836675
21.28112 0.99842358 0.70836675
21.327959 0.94375354 0.70836675
21.380022 0.89403272 0.70836675
21.436789 0.84975785 0.70836675
21.497692 0.81137151 0.70836675
21.562122 0.77925706 0.70836675
21.629438 0.75373548 0.70836675
21.698965 0.73506171 0.70836675
21.77001 0.72342229 0.70836675
21.84186 0.71893364 0.70836675
21.913801 0.72164047 0.70836675
21.985111 0.73151582 0.70836675
22.055079 0.74846107 0.70836675
22.123007 0.77230674 0.70836675
22.188213 0.80281472 0.70836675
22.25005 0.83968019 0.70836675
22.307896 0.88253468 0.70836675
22.361176 0.93095011 0.70836675
22.409355 0.98444271 0.70836675
22.451952 1.0424778 0.70836675
22.488544 1.104476 0.70836675
22.518764 1.1698173 0.70836675
22.542309 1.2378492 0.70836675
22.558945 1.3078918 0.70836675
22.568504 1.3792453 0.70836675
22.558056 1.4390898 0.63693309
22.554522 1.5096991 0.63693309
22.543957 1.579603 0.63693309
22.526466 1.6481028 0.63693309
22.502224 1.7145143 0.63693309
22.471474 1.7781737 0.63693309
22.434521 1.8384452 0.63693309
22.391735 1.8947265 0.63693309
22.343546 1.9464552 0.63693309
22.290432 1.9931145 0.63693309
22.232925 2.0342383 0.63693309
22.1716 2.0694153 0.63693309
22.107069 2.0982943 0.63693309
22.039978 2.1205869 0.63693309
21.970997 2.1360703 0.63693309
21.900814 2.1445894 0.63693309
21.830132 2.1460595 0.63693309
21.759657 2.140466 0.63693309
21.69009 2.1278644 0.63693309
21.622131 2.1083808 0.63693309
21.556456 2.0822098 0.63693309
21.493721 2.049613 0.63693309
21.434555 2.0109162 0.63693309
21.379547 1.9665058 0.63693309
21.329247 1.9168257 0.63693309
21.284159 1.8623722 0.63693309
21.244732 1.8036894 0.63693309
21.211361 1.7413636 0.63693309
21.184378 1.6760176 0.63693309
21.164053 1.6083044 0.63693309
21.150591 1.5389004 0.63693309
21.144125 1.4684992 0.63693309
21.144718 1.397804 0.63693309
21.152369 1.3275214 0.63693309
21.166996 1.2583536 0.63693309
21.188456 1.1909916 0.63693309
21.216532 1.1261085 0.63693309
21.250946 1.0643526 0.63693309
21.291355 1.006341 0.63693309
21.337353 0.95265329 0.63693309
21.388479 0.90382576 0.63693309
21.444227 0.86034638 0.63693309
21.504036 0.82264972 0.63693309
21.56731 0.7911123 0.63693309
21.633415 0.76604927 0.63693309
21.701693 0.747711 0.63693309
21.771461 0.73628068 0.63693309
21.84202 0.73187268 0.63693309
21.912668 0.73453093 0.63693309
21.982698 0.74422884 0.63693309
22.051409 0.76086956 0.63693309
22.118116 0.78428686 0.63693309
22.182152 0.81424671 0.63693309
22.242876 0.8504498 0.63693309
22.299683 0.89253432 0.63693309
22.352005 0.94007987 0.63693309
22.399319 0.99261129 0.63693309
22.441151 1.0496038 0.63693309
22.477085 1.1104879 0.63693309
22.506762 1.1746554 0.63693309
22.529884 1.2414649 0.63693309
22.546221 1.3102491 0.63693309
22.555611 1.3803205 0.63693309
22.53805 1.4390898 0.56714809
22.534615 1.5077018 0.56714809
22.524349 1.5756282 0.56714809
22.507353 1.6421903 0.56714809
22.483797 1.7067232 0.56714809
22.453917 1.768582 0.56714809
22.418009 1.8271486 0.56714809
22.376432 1.8818378 0.56714809
22.329607 1.9321033 0.56714809
22.277994 1.9774426 0.56714809
22.222115 2.0174031 0.56714809
22.162525 2.051585 0.56714809
22.099819 2.0796473 0.56714809
22.034626 2.1013093 0.56714809
21.967596 2.1163545 0.56714809
21.899399 2.1246328 0.56714809
21.830717 2.1260612 0.56714809
21.762234 2.120626 0.56714809
21.694635 2.1083808 0.56714809
21.628599 2.0894482 0.56714809
21.564781 2.0640175 0.56714809
21.503822 2.0323429 0.56714809
21.446329 1.9947407 0.56714809
21.392876 1.9515865 0.56714809
21.344 1.9033117 0.56714809
21.300186 1.8503987 0.56714809
21.261875 1.7933758 0.56714809
21.229448 1.7328131 0.56714809
21.203228 1.6693156 0.56714809
21.183479 1.6035178 0.56714809
21.170397 1.536077 0.56714809
21.164114 1.4676672 0.56714809
21.164692 1.3989719 0.56714809
21.172125 1.3306774 0.56714809
21.186338 1.2634661 0.56714809
21.207191 1.1980096 0.56714809
21.234474 1.134962 0.56714809
21.267914 1.074953 0.56714809
21.30718 1.0185823 0.56714809
21.351875 0.96641326 0.56714809
21.401558 0.91896695 0.56714809
21.455727 0.87671751 0.56714809
21.513844 0.84008718 0.56714809
21.575329 0.80944186 0.56714809
21.639565 0.78508776 0.56714809
21.70591 0.76726824 0.56714809
21.773705 0.75616133 0.56714809
21.842268 0.75187796 0.56714809
21.910917 0.75446099 0.56714809
21.978966 0.7638846 0.56714809
22.045734 0.78005463 0.56714809
22.110554 0.80280948 0.56714809
22.172777 0.83192188 0.56714809
22.231785 0.86710083 0.56714809
22.286985 0.90799493 0.56714809
22.337826 0.9541955 0.56714809
22.383802 1.005241 0.56714809
22.424452 1.0606214 0.56714809
22.45937 1.1197833 0.56714809
22.488207 1.1821356 0.56714809
22.510675 1.2470552 0.56714809
22.52655 1.3138937 0.56714809
22.535671 1.3819829 0.56714809
22.511175 1.4390898 0.49970919
22.507875 1.5050188 0.49970919
22.498011 1.5702891 0.49970919
22.48168 1.6342486 0.49970919
22.459045 1.6962581 0.49970919
22.430332 1.755698 0.49970919
22.395828 1.8119745 0.49970919
22.355879 1.8645253 0.49970919
22.310883 1.9128252 0.49970919
22.26129 1.9563918 0.49970919
22.207596 1.9947896 0.49970919
22.150335 2.0276351 0.49970919
22.090082 2.0545998 0.49970919
22.027437 2.0754149 0.49970919
21.96303 2.0898719 0.49970919
21.897499 2.0978265 0.49970919
21.831501 2.0991991 0.49970919
21.765696 2.093976 0.49970919
21.700743 2.0822098 0.49970919
21.637287 2.0640175 0.49970919
21.575964 2.0395813 0.49970919
21.517389 2.0091453 0.49970919
21.462143 1.9730134 0.49970919
21.410782 1.9315467 0.49970919
21.363817 1.8851595 0.49970919
21.321716 1.8343154 0.49970919
21.284903 1.7795224 0.49970919
21.253744 1.7213278 0.49970919
21.22855 1.6603132 0.49970919
21.209572 1.5970882 0.49970919
21.197002 1.5322846 0.49970919
21.190964 1.4665498 0.49970919
21.191519 1.4005406 0.49970919
21.198662 1.3349166 0.49970919
21.21232 1.2703335 0.49970919
21.232357 1.2074364 0.49970919
21.258574 1.1468542 0.49970919
21.290707 1.0891916 0.49970919
21.328436 1.0350252 0.49970919
21.371384 0.98489606 0.49970919
21.419123 0.93930507 0.49970919
21.471174 0.89870763 0.49970919
21.52702 0.8635096 0.49970919
21.5861 0.83406264 0.49970919
21.647823 0.81066084 0.49970919
21.711575 0.79353809 0.49970919
21.776718 0.78286546 0.49970919
21.842602 0.77874964 0.49970919
21.908566 0.78123164 0.49970919
21.973953 0.79028678 0.49970919
22.038111 0.80582452 0.49970919
22.100395 0.82768959 0.49970919
22.160187 0.8556636 0.49970919
22.216887 0.889467 0.49970919
22.269928 0.92876202 0.49970919
22.318783 0.97315609 0.49970919
22.362959 1.0222056 0.49970919
22.40202 1.0754204 0.49970919
22.435572 1.1322689 0.49970919
22.463282 1.192183 0.49970919
22.484871 1.2545642 0.49970919
22.500126 1.3187891 0.49970919
22.508892 1.384216 0.49970919
22.477703 1.4390898 0.4352901
22.474571 1.5016773 0.4352901
22.465206 1.5636393 0.4352901
22.449703 1.624357 0.4352901
22.428215 1.6832235 0.4352901
22.400957 1.7396506 0.4352901
22.368202 1.7930747 0.4352901
22.330278 1.8429619 0.4352901
22.287563 1.8888137 0.4352901
22.240482 1.9301722 0.4352901
22.18951 1.9666238 0.4352901
22.135153 1.9978044 0.4352901
22.077953 2.0234027 0.4352901
22.018484 2.0431626 0.4352901
21.95734 2.0568867 0.4352901
21.89513 2.0644381 0.4352901
21.832478 2.0657411 0.4352901
21.77001 2.0607829 0.4352901
21.708347 2.049613 0.4352901
21.648108 2.0323429 0.4352901
21.589893 2.0091453 0.4352901
21.534286 1.9802518 0.4352901
21.481842 1.9459512 0.4352901
21.433083 1.9065864 0.4352901
21.388498 1.8625504 0.4352901
21.348532 1.8142834 0.4352901
21.313585 1.7622675 0.4352901
21.284004 1.7070224 0.4352901
21.260088 1.6491004 0.4352901
21.242073 1.5890801 0.4352901
21.230139 1.5275609 0.4352901
21.224407 1.465158 0.4352901
21.224934 1.4024945 0.4352901
21.231714 1.3401966 0.4352901
21.24468 1.2788869 0.4352901
21.263702 1.2191778 0.4352901
21.288589 1.1616662 0.4352901
21.319094 1.1069263 0.4352901
21.354912 1.0555053 0.4352901
21.395683 1.007917 0.4352901
21.441002 0.9646368 0.4352901
21.490416 0.9260971 0.4352901
21.54343 0.89268309 0.4352901
21.599514 0.86472863 0.4352901
21.65811 0.84251297 0.4352901
21.718632 0.82625806 0.4352901
21.780472 0.81612641 0.4352901
21.843016 0.81221914 0.4352901
21.905638 0.81457537 0.4352901
21.96771 0.82317156 0.4352901
22.028616 0.83792174 0.4352901
22.087744 0.85867858 0.4352901
22.144505 0.88523471 0.4352901
22.19833 0.91732484 0.4352901
22.248684 0.95462811 0.4352901
22.295061 0.99677205 0.4352901
22.337 1.0433354 0.4352901
22.374081 1.0938531 0.4352901
22.405931 1.1478202 0.4352901
22.432238 1.2046976 0.4352901
22.452732 1.263917 0.4352901
22.467213 1.3248866 0.4352901
22.475534 1.3869972 0.4352901
22.437967 1.4390898 0.37453443
22.435034 1.4977102 0.37453443
22.426262 1.555745 0.37453443
22.411741 1.6126142 0.37453443
22.391615 1.6677494 0.37453443
22.366085 1.7206001 0.37453443
22.335407 1.770638 0.37453443
22.299887 1.8173633 0.37453443
22.259878 1.8603089 0.37453443
22.215782 1.8990458 0.37453443
22.168041 1.933187 0.37453443
22.117128 1.9623914 0.37453443
22.063555 1.986367 0.37453443
22.007854 2.0048745 0.37453443
21.950586 2.0177288 0.37453443
21.892321 2.0248015 0.37453443
21.833639 2.026022 0.37453443
21.775129 2.021378 0.37453443
21.717375 2.0109162 0.37453443
21.660954 1.9947407 0.37453443
21.60643 1.9730134 0.37453443
21.554348 1.9459512 0.37453443
21.505226 1.9138248 0.37453443
21.459558 1.8769549 0.37453443
21.417799 1.83571 0.37453443
21.380367 1.7905023 0.37453443
21.347633 1.7417834 0.37453443
21.319929 1.6900401 0.37453443
21.297527 1.6357893 0.37453443
21.280655 1.5795732 0.37453443
21.269478 1.5219535 0.37453443
21.264109 1.4635057 0.37453443
21.264603 1.404814 0.37453443
21.270954 1.3464649 0.37453443
21.283096 1.289041 0.37453443
21.300913 1.2331166 0.37453443
21.324223 1.1792501 0.37453443
21.352795 1.1279799 0.37453443
21.386341 1.0798181 0.37453443
21.424528 1.0352461 0.37453443
21.466976 0.99470913 0.37453443
21.513256 0.9586122 0.37453443
21.56291 0.92731607 0.37453443
21.61544 0.90113348 0.37453443
21.670322 0.88032591 0.37453443
21.727007 0.86510128 0.37453443
21.784929 0.8556118 0.37453443
21.843508 0.8519522 0.37453443
21.902161 0.85415912 0.37453443
21.9603 0.86221039 0.37453443
22.017345 0.87602568 0.37453443
22.072725 0.89546692 0.37453443
22.125887 0.92033982 0.37453443
22.176302 0.95039594 0.37453443
22.223463 0.98533487 0.37453443
22.266901 1.0248076 0.37453443
22.306183 1.0684197 0.37453443
22.340912 1.1157353 0.37453443
22.370745 1.1662818 0.37453443
22.395382 1.2195542 0.37453443
22.414579 1.27502 0.37453443
22.428143 1.3321252 0.37453443
22.435936 1.3902991 0.37453443
22.392365 1.4390898 0.31804931
22.389658 1.4931575 0.31804931
22.381569 1.546685 0.31804931
22.368176 1.5991375 0.31804931
22.349611 1.6499908 0.31804931
22.326065 1.6987369 0.31804931
22.29777 1.7448887 0.31804931
22.265007 1.787985 0.31804931
22.228106 1.8275952 0.31804931
22.187435 1.8633237 0.31804931
22.1434 1.8948133 0.31804931
22.096443 1.9217496 0.31804931
22.047029 1.9438632 0.31804931
21.995657 1.9609332 0.31804931
21.942835 1.9727893 0.31804931
21.889093 1.9793127 0.31804931
21.83497 1.9804385 0.31804931
21.781004 1.9761552 0.31804931
21.727736 1.9665058 0.31804931
21.675697 1.9515865 0.31804931
21.625408 1.9315467 0.31804931
21.57737 1.9065863 0.31804931
21.532064 1.8769549 0.31804931
21.489943 1.8429486 0.31804931
21.451427 1.8049068 0.31804931
21.416901 1.7632102 0.31804931
21.386711 1.718275 0.31804931
21.361156 1.6705502 0.31804931
21.340496 1.6205128 0.31804931
21.324934 1.5686626 0.31804931
21.314625 1.5155178 0.31804931
21.309673 1.4616095 0.31804931
21.310127 1.4074761 0.31804931
21.315985 1.3536584 0.31804931
21.327187 1.3006945 0.31804931
21.343618 1.2491133 0.31804931
21.365118 1.1994303 0.31804931
21.39147 1.1521419 0.31804931
21.422411 1.1077206 0.31804931
21.457634 1.0666103 0.31804931
21.496784 1.0292215 0.31804931
21.539471 0.99592805 0.31804931
21.585268 0.96706253 0.31804931
21.633718 0.94291341 0.31804931
21.684338 0.92372179 0.31804931
21.73662 0.90967965 0.31804931
21.790043 0.90092713 0.31804931
21.844074 0.89755177 0.31804931
21.89817 0.89958721 0.31804931
21.951794 0.90701324 0.31804931
22.004408 0.91975558 0.31804931
22.055489 0.93768692 0.31804931
22.104523 0.96062809 0.31804931
22.15102 0.98834991 0.31804931
22.194519 1.0205753 0.31804931
22.234585 1.0569824 0.31804931
22.270813 1.0972074 0.31804931
22.302847 1.1408484 0.31804931
22.330362 1.1874692 0.31804931
22.353086 1.2366042 0.31804931
22.370792 1.2877623 0.31804931
22.383303 1.3404324 0.31804931
22.390491 1.3940884 0.31804931
22.341351 1.4390898 0.26639903
22.3389 1.4880646 0.26639903
22.331572 1.53655 0.26639903
22.319439 1.5840617 0.26639903
22.302626 1.6301249 0.26639903
22.281296 1.6742793 0.26639903
22.255665 1.7160838 0.26639903
22.22599 1.7551206 0.26639903
22.192564 1.7909999 0.26639903
22.155725 1.8233628 0.26639903
22.115837 1.8518863 0.26639903
22.073303 1.8762852 0.26639903
22.028543 1.8963158 0.26639903
21.98201 1.9117781 0.26639903
21.934164 1.9225173 0.26639903
21.885485 1.9284263 0.26639903
21.83646 1.929446 0.26639903
21.787577 1.9255662 0.26639903
21.739326 1.9168257 0.26639903
21.69219 1.9033117 0.26639903
21.646637 1.8851595 0.26639903
21.603125 1.8625504 0.26639903
21.562086 1.83571 0.26639903
21.523932 1.8049068 0.26639903
21.489044 1.7704487 0.26639903
21.457771 1.7326796 0.26639903
21.430424 1.691977 0.26639903
21.407278 1.6487477 0.26639903
21.388563 1.6034236 0.26639903
21.374466 1.5564575 0.26639903
21.365128 1.5083187 0.26639903
21.360643 1.4594882 0.26639903
21.361055 1.4104539 0.26639903
21.366362 1.3617057 0.26639903
21.376507 1.3137307 0.26639903
21.391392 1.2670082 0.26639903
21.410866 1.2220051 0.26639903
21.434736 1.1791711 0.26639903
21.462763 1.1389341 0.26639903
21.494667 1.1016961 0.26639903
21.530128 1.0678293 0.26639903
21.568794 1.0376718 0.26639903
21.610279 1.0115253 0.26639903
21.654165 0.98965085 0.26639903
21.700016 0.97226703 0.26639903
21.747374 0.95954758 0.26639903
21.795765 0.95161951 0.26639903
21.844706 0.94856215 0.26639903
21.893707 0.95040584 0.26639903
21.94228 0.95713234 0.26639903
21.989939 0.96867442 0.26639903
22.036205 0.98491669 0.26639903
22.080622 1.005697 0.26639903
22.12274 1.0308075 0.26639903
22.162142 1.0599974 0.26639903
22.198433 1.0929751 0.26639903
22.231249 1.1294111 0.26639903
22.260265 1.1689413 0.26639903
22.285189 1.2111707 0.26639903
22.305773 1.2556773 0.26639903
22.32181 1.3020166 0.26639903
22.333141 1.3497255 0.26639903
22.339653 1.3983272 0.26639903
22.285435 1.4390898 0.22009975
22.283262 1.4824823 0.22009975
22.27677 1.5254413 0.22009975
22.266022 1.5675375 0.22009975
22.251123 1.6083503 0.22009975
22.232225 1.6474719 0.22009975
22.209517 1.6845114 0.22009975
22.183222 1.7190987 0.22009975
22.153608 1.7508883 0.22009975
22.120966 1.7795625 0.22009975
22.085627 1.8048348 0.22009975
22.047939 1.8264526 0.22009975
22.008284 1.8442001 0.22009975
21.967052 1.8578999 0.22009975
21.92466 1.8674151 0.22009975
21.881531 1.8726505 0.22009975
21.838093 1.873554 0.22009975
21.794783 1.8701164 0.22009975
21.752031 1.8623722 0.22009975
21.710266 1.8503985 0.22009975
21.669907 1.8343154 0.22009975
21.631353 1.8142833 0.22009975
21.594992 1.7905023 0.22009975
21.561188 1.7632102 0.22009975
21.530277 1.7326796 0.22009975
21.502567 1.6992155 0.22009975
21.478338 1.6631523 0.22009975
21.45783 1.6248504 0.22009975
21.441248 1.5846925 0.22009975
21.428759 1.5430796 0.22009975
21.420485 1.5004278 0.22009975
21.416512 1.4571631 0.22009975
21.416876 1.4137179 0.22009975
21.421577 1.3705261 0.22009975
21.430565 1.3280194 0.22009975
21.443754 1.2866225 0.22009975
21.461008 1.2467489 0.22009975
21.482159 1.2087972 0.22009975
21.50699 1.1731465 0.22009975
21.535257 1.1401531 0.22009975
21.566677 1.1101464 0.22009975
21.600937 1.0834264 0.22009975
21.637691 1.0602601 0.22009975
21.676577 1.040879 0.22009975
21.717201 1.0254767 0.22009975
21.759161 1.0142069 0.22009975
21.802036 1.0071826 0.22009975
21.845398 1.0044737 0.22009975
21.888815 1.0061072 0.22009975
21.93185 1.0120671 0.22009975
21.974077 1.0222936 0.22009975
22.015072 1.0366845 0.22009975
22.054424 1.0550961 0.22009975
22.091742 1.0773445 0.22009975
22.126652 1.1032073 0.22009975
22.158806 1.1324261 0.22009975
22.187883 1.1647091 0.22009975
22.213591 1.1997335 0.22009975
22.235674 1.2371495 0.22009975
22.253912 1.2765832 0.22009975
22.268122 1.3176405 0.22009975
22.278162 1.3599114 0.22009975
22.28393 1.4029735 0.22009975
22.225176 1.4390898 0.17961401
22.223305 1.4764665 0.17961401
22.217712 1.5134697 0.17961401
22.208454 1.5497298 0.17961401
22.195621 1.5848844 0.17961401
22.179342 1.6185822 0.17961401
22.159782 1.6504867 0.17961401
22.137135 1.680279 0.17961401
22.111626 1.7076614 0.17961401
22.083509 1.7323602 0.17961401
22.053068 1.7541288 0.17961401
22.020607 1.7727497 0.17961401
21.986448 1.7880367 0.17961401
21.950933 1.7998371 0.17961401
21.914419 1.8080331 0.17961401
21.877268 1.8125428 0.17961401
21.839851 1.813321 0.17961401
21.802546 1.81036 0.17961401
21.765722 1.8036894 0.17961401
21.729748 1.7933758 0.17961401
21.694983 1.7795224 0.17961401
21.661774 1.7622675 0.17961401
21.630455 1.7417834 0.17961401
21.601337 1.718275 0.17961401
21.574711 1.691977 0.17961401
21.550844 1.6631523 0.17961401
21.529974 1.6320889 0.17961401
21.512308 1.599097 0.17961401
21.498024 1.5645064 0.17961401
21.487267 1.5286628 0.17961401
21.480141 1.491924 0.17961401
21.476717 1.4546576 0.17961401
21.477032 1.4172354 0.17961401
21.481081 1.3800316 0.17961401
21.488823 1.3434179 0.17961401
21.500183 1.3077601 0.17961401
21.515045 1.2734146 0.17961401
21.533262 1.2407244 0.17961401
21.554653 1.2100163 0.17961401
21.579002 1.1815969 0.17961401
21.606066 1.1557503 0.17961401
21.635574 1.1327347 0.17961401
21.667234 1.1127801 0.17961401
21.700727 1.0960859 0.17961401
21.735722 1.0828189 0.17961401
21.771864 1.0731115 0.17961401
21.808794 1.0670611 0.17961401
21.846146 1.0647277 0.17961401
21.883543 1.0661348 0.17961401
21.920612 1.0712683 0.17961401
21.956984 1.0800771 0.17961401
21.992294 1.0924729 0.17961401
22.026192 1.1083319 0.17961401
22.058336 1.1274959 0.17961401
22.088408 1.1497731 0.17961401
22.116102 1.1749412 0.17961401
22.141148 1.2027485 0.17961401
22.163292 1.2329172 0.17961401
22.182314 1.2651459 0.17961401
22.198023 1.2991127 0.17961401
22.210262 1.334478 0.17961401
22.21891 1.3708886 0.17961401
22.223881 1.4079806 0.17961401
22.161175 1.4390898 0.1453464
22.159624 1.4700772 0.1453464
22.154989 1.5007551 0.1453464
22.147312 1.5308167 0.1453464
22.136673 1.5599618 0.1453464
22.123178 1.5878993 0.1453464
22.106962 1.61435 0.1453464
22.088184 1.6390494 0.1453464
22.067036 1.6617509 0.1453464
22.043726 1.6822277 0.1453464
22.01849 1.7002751 0.1453464
21.991577 1.7157128 0.1453464
21.963257 1.7283866 0.1453464
21.933813 1.7381699 0.1453464
21.90354 1.7449648 0.1453464
21.87274 1.7487036 0.1453464
21.841721 1.7493488 0.1453464
21.810793 1.7468939 0.1453464
21.780262 1.7413636 0.1453464
21.750439 1.7328131 0.1453464
21.721617 1.7213278 0.1453464
21.694084 1.7070224 0.1453464
21.668119 1.6900401 0.1453464
21.643978 1.6705502 0.1453464
21.621904 1.6487477 0.1453464
21.602116 1.6248504 0.1453464
21.584814 1.599097 0.1453464
21.570168 1.5717449 0.1453464
21.558327 1.5430673 0.1453464
21.549408 1.5133508 0.1453464
21.543499 1.4828924 0.1453464
21.540661 1.4519963 0.1453464
21.540922 1.4209713 0.1453464
21.544279 1.3901272 0.1453464
21.550699 1.3597723 0.1453464
21.560116 1.3302101 0.1453464
21.572437 1.3017356 0.1453464
21.587542 1.2746336 0.1453464
21.605274 1.2491747 0.1453464
21.625462 1.2256135 0.1453464
21.647898 1.2041851 0.1453464
21.672363 1.1851039 0.1453464
21.69861 1.1685605 0.1453464
21.726379 1.1547201 0.1453464
21.75539 1.1437209 0.1453464
21.785355 1.135673 0.1453464
21.815973 1.1306567 0.1453464
21.846939 1.1287223 0.1453464
21.877943 1.1298889 0.1453464
21.908676 1.1341449 0.1453464
21.938829 1.1414478 0.1453464
21.968105 1.1517246 0.1453464
21.996206 1.1648728 0.1453464
22.022856 1.1807607 0.1453464
22.047787 1.1992298 0.1453464
22.070749 1.2200955 0.1453464
22.091513 1.2431494 0.1453464
22.109871 1.2681609 0.1453464
22.125641 1.2948804 0.1453464
22.138664 1.3230407 0.1453464
22.148813 1.3523606 0.1453464
22.155983 1.382547 0.1453464
22.160103 1.4132985 0.1453464
22.094074 1.4390898 0.11763924
22.092859 1.4633783 0.11763924
22.089226 1.4874241 0.11763924
22.083208 1.510987 0.11763924
22.074869 1.5338316 0.11763924
22.064291 1.5557295 0.11763924
22.05158 1.5764619 0.11763924
22.036863 1.5958219 0.11763924
22.020287 1.6136158 0.11763924
22.002016 1.6296659 0.11763924
21.982235 1.6438117 0.11763924
21.96114 1.6559122 0.11763924
21.938942 1.6658461 0.11763924
21.915865 1.6735144 0.11763924
21.892136 1.6788404 0.11763924
21.867994 1.6817709 0.11763924
21.843679 1.6822766 0.11763924
21.819437 1.6803524 0.11763924
21.795507 1.6760176 0.11763924
21.772131 1.6693156 0.11763924
21.74954 1.6603132 0.11763924
21.727961 1.6491004 0.11763924
21.707607 1.6357893 0.11763924
21.688686 1.6205128 0.11763924
21.671383 1.6034236 0.11763924
21.655874 1.5846925 0.11763924
21.642311 1.5645064 0.11763924
21.630833 1.5430673 0.11763924
21.621552 1.5205894 0.11763924
21.614559 1.497297 0.11763924
21.609928 1.4734231 0.11763924
21.607704 1.4492061 0.11763924
21.607908 1.4248881 0.11763924
21.61054 1.400712 0.11763924
21.615572 1.3769193 0.11763924
21.622953 1.3537478 0.11763924
21.632612 1.331429 0.11763924
21.644449 1.3101859 0.11763924
21.65835 1.2902309 0.11763924
21.674171 1.2717631 0.11763924
21.691759 1.2549671 0.11763924
21.710936 1.2400109 0.11763924
21.731508 1.2270439 0.11763924
21.753273 1.2161955 0.11763924
21.776012 1.2075741 0.11763924
21.7995 1.2012661 0.11763924
21.823498 1.1973342 0.11763924
21.847771 1.1958179 0.11763924
21.872072 1.1967323 0.11763924
21.89616 1.2000682 0.11763924
21.919796 1.2057924 0.11763924
21.942741 1.2138476 0.11763924
21.964769 1.2241533 0.11763924
21.985659 1.2366066 0.11763924
22.005199 1.251083 0.11763924
22.023197 1.2674379 0.11763924
22.039473 1.285508 0.11763924
22.053862 1.3051126 0.11763924
22.066223 1.3260558 0.11763924
22.076431 1.3481284 0.11763924
22.084385 1.3711098 0.11763924
22.090004 1.3947705 0.11763924
22.093233 1.418874 0.11763924
22.024544 1.4390898 0.096769392
22.023676 1.4564368 0.096769392
22.02108 1.4736103 0.096769392
22.016783 1.4904391 0.096769392
22.010826 1.5067546 0.096769392
22.003271 1.5223942 0.096769392
21.994194 1.5372014 0.096769392
21.983683 1.5510283 0.096769392
21.971844 1.5637368 0.096769392
21.958794 1.5751997 0.096769392
21.944666 1.5853028 0.096769392
21.9296 1.5939449 0.096769392
21.913748 1.6010399 0.096769392
21.897264 1.6065166 0.096769392
21.880318 1.6103204 0.096769392
21.863075 1.6124134 0.096769392
21.845711 1.6127745 0.096769392
21.828396 1.6114004 0.096769392
21.811306 1.6083044 0.096769392
21.794609 1.6035178 0.096769392
21.778475 1.5970882 0.096769392
21.763063 1.5890801 0.096769392
21.748528 1.5795732 0.096769392
21.735012 1.5686626 0.096769392
21.722656 1.5564575 0.096769392
21.711578 1.5430796 0.096769392
21.701893 1.5286628 0.096769392
21.693693 1.5133508 0.096769392
21.687065 1.497297 0.096769392
21.682072 1.4806615 0.096769392
21.678764 1.4636108 0.096769392
21.677176 1.4463149 0.096769392
21.677322 1.4289469 0.096769392
21.679201 1.4116802 0.096769392
21.682795 1.3946874 0.096769392
21.688066 1.3781383 0.096769392
21.694965 1.3621981 0.096769392
21.703419 1.3470262 0.096769392
21.713346 1.3327743 0.096769392
21.724648 1.3195845 0.096769392
21.737207 1.3075888 0.096769392
21.750904 1.2969071 0.096769392
21.765596 1.2876459 0.096769392
21.781141 1.2798979 0.096769392
21.797382 1.2737405 0.096769392
21.814156 1.2692354 0.096769392
21.831297 1.2664272 0.096769392
21.848631 1.2653443 0.096769392
21.865988 1.2659973 0.096769392
21.883192 1.2683799 0.096769392
21.900072 1.2724681 0.096769392
21.91646 1.2782211 0.096769392
21.932194 1.2855815 0.096769392
21.947111 1.2944757 0.096769392
21.961067 1.3048148 0.096769392
21.973921 1.3164955 0.096769392
21.985546 1.3294013 0.096769392
21.995823 1.3434029 0.096769392
22.00465 1.3583605 0.096769392
22.011942 1.3741249 0.096769392
22.017622 1.3905383 0.096769392
22.021635 1.4074368 0.096769392
22.023943 1.4246516 0.096769392
21.953276 1.4390898 0.082945406
21.952763 1.4493217 0.082945406
21.951233 1.4594516 0.082945406
21.948698 1.469378 0.082945406
21.945185 1.4790016 0.082945406
21.940729 1.4882267 0.082945406
21.935373 1.4969605 0.082945406
21.929174 1.5051163 0.082945406
21.92219 1.5126123 0.082945406
21.914494 1.5193738 0.082945406
21.90616 1.525333 0.082945406
21.897274 1.5304306 0.082945406
21.887922 1.5346154 0.082945406
21.878201 1.5378458 0.082945406
21.868204 1.5400896 0.082945406
21.858034 1.541324 0.082945406
21.847792 1.541537 0.082945406
21.83758 1.5407265 0.082945406
21.827497 1.5389004 0.082945406
21.81765 1.536077 0.082945406
21.808132 1.5322846 0.082945406
21.799042 1.5275609 0.082945406
21.790468 1.5219533 0.082945406
21.782497 1.5155178 0.082945406
21.775208 1.5083187 0.082945406
21.768675 1.5004278 0.082945406
21.76296 1.491924 0.082945406
21.758125 1.4828924 0.082945406
21.754215 1.4734231 0.082945406
21.75127 1.4636108 0.082945406
21.749319 1.4535534 0.082945406
21.748383 1.4433515 0.082945406
21.748468 1.433107 0.082945406
21.749577 1.4229224 0.082945406
21.751696 1.4128993 0.082945406
21.754807 1.4031378 0.082945406
21.758875 1.3937355 0.082945406
21.763861 1.3847865 0.082945406
21.769716 1.37638 0.082945406
21.776382 1.3686 0.082945406
21.783792 1.3615245 0.082945406
21.79187 1.3552238 0.082945406
21.800537 1.3497611 0.082945406
21.809706 1.345191 0.082945406
21.819284 1.3415592 0.082945406
21.82918 1.3389018 0.082945406
21.839289 1.3372453 0.082945406
21.849514 1.3366066 0.082945406
21.859753 1.3369918 0.082945406
21.8699 1.3383971 0.082945406
21.879856 1.3408085 0.082945406
21.889523 1.3442019 0.082945406
21.898804 1.3485434 0.082945406
21.907602 1.3537897 0.082945406
21.915834 1.3598882 0.082945406
21.923416 1.366778 0.082945406
21.930273 1.3743904 0.082945406
21.936335 1.3826492 0.082945406
21.941542 1.391472 0.082945406
21.945843 1.4007704 0.082945406
21.949194 1.4104519 0.082945406
21.951561 1.4204195 0.082945406
21.952921 1.4305735 0.082945406
21.880983 1.4390898 0.07630533
21.880833 1.4421047 0.07630533
21.880381 1.4450895 0.07630533
21.879635 1.4480143 0.07630533
21.878599 1.4508499 0.07630533
21.877287 1.453568 0.07630533
21.87571 1.4561415 0.07630533
21.873882 1.4585446 0.07630533
21.871824 1.4607533 0.07630533
21.869556 1.4627455 0.07630533
21.867102 1.4645015 0.07630533
21.864483 1.4660035 0.07630533
21.861727 1.4672366 0.07630533
21.858862 1.4681884 0.07630533
21.855917 1.4688495 0.07630533
21.852921 1.4692132 0.07630533
21.849903 1.4692761 0.07630533
21.846893 1.4690372 0.07630533
21.843924 1.4684992 0.07630533
21.841021 1.4676672 0.07630533
21.838217 1.4665498 0.07630533
21.835539 1.465158 0.07630533
21.833012 1.4635057 0.07630533
21.830664 1.4616095 0.07630533
21.828516 1.4594882 0.07630533
21.82659 1.4571631 0.07630533
21.824907 1.4546576 0.07630533
21.823483 1.4519963 0.07630533
21.82233 1.4492061 0.07630533
21.821463 1.4463149 0.07630533
21.820887 1.4433515 0.07630533
21.820612 1.4403455 0.07630533
21.820637 1.4373269 0.07630533
21.820963 1.4343261 0.07630533
21.821589 1.4313726 0.07630533
21.822504 1.4284965 0.07630533
21.823704 1.4257261 0.07630533
21.825172 1.4230891 0.07630533
21.826899 1.4206122 0.07630533
21.828861 1.4183198 0.07630533
21.831045 1.416235 0.07630533
21.833426 1.4143785 0.07630533
21.835979 1.412769 0.07630533
21.83868 1.4114224 0.07630533
21.841503 1.4103522 0.07630533
21.844418 1.4095691 0.07630533
21.847397 1.4090811 0.07630533
21.85041 1.4088929 0.07630533
21.853426 1.4090065 0.07630533
21.856417 1.4094205 0.07630533
21.85935 1.4101311 0.07630533
21.8622 1.4111309 0.07630533
21.864933 1.4124101 0.07630533
21.867525 1.4139559 0.07630533
21.869951 1.4157529 0.07630533
21.872185 1.417783 0.07630533
21.874207 1.4200259 0.07630533
21.875992 1.4224595 0.07630533
21.877525 1.4250591 0.07630533
21.878794 1.4277989 0.07630533
21.87978 1.4306515 0.07630533
21.880478 1.4335885 0.07630533
21.880878 1.4365804 0.07630533
21.79043 3.5199838 -0.6979208
21.79043 3.5199838 -0.59792078
21.79043 3.5199838 -0.49792078
21.79043 3.5199838 -0.39792079
21.79043 3.5199838 -0.29792079
21.79043 3.5199838 -0.1979208
21.79043 3.5199838 -0.097920798
21.79043 3.5199838 0.0020792037
21.79043 3.5199838 0.10207921
21.79043 3.5199838 0.20207921
21.79043 3.5199838 0.3020792
21.79043 3.5199838 0.40207919
21.79043 3.5199838 0.50207919
21.79043 3.5199838 0.60207921
21.79043 3.5199838 0.70207924
21.79043 3.6199837 -0.6979208
21.79043 3.6199837 -0.59792078
21.79043 3.6199837 -0.49792078
21.79043 3.6199837 -0.39792079
21.79043 3.6199837 -0.29792079
21.79043 3.6199837 -0.1979208
21.79043 3.6199837 -0.097920798
21.79043 3.6199837 0.0020792037
21.79043 3.6199837 0.10207921
21.79043 3.6199837 0.20207921
21.79043 3.6199837 0.3020792
21.79043 3.6199837 0.40207919
21.79043 3.6199837 0.50207919
21.79043 3.6199837 0.60207921
21.79043 3.6199837 0.70207924
21.79043 3.7199836 -0.6979208
21.79043 3.7199836 -0.59792078
21.79043 3.7199836 -0.49792078
21.79043 3.7199836 -0.39792079
21.79043 3.7199836 -0.29792079
21.79043 3.7199836 -0.1979208
21.79043 3.7199836 -0.097920798
21.79043 3.7199836 0.0020792037
21.79043 3.7199836 0.10207921
21.79043 3.7199836 0.20207921
21.79043 3.7199836 0.3020792
21.79043 3.7199836 0.40207919
21.79043 3.7199836 0.50207919
21.79043 3.7199836 0.60207921
21.79043 3.7199836 0.70207924
21.79043 3.8199835 -0.6979208
21.79043 3.8199835 -0.59792078
21.79043 3.8199835 -0.49792078
21.79043 3.8199835 -0.39792079
21.79043 3.8199835 -0.29792079
21.79043 3.8199835 -0.1979208
21.79043 3.8199835 -0.097920798
21.79043 3.8199835 0.0020792037
21.79043 3.8199835 0.10207921
21.79043 3.8199835 0.20207921
21.79043 3.8199835 0.3020792
21.79043 3.8199835 0.40207919
21.79043 3.8199835 0.50207919
21.79043 3.8199835 0.60207921
21.79043 3.8199835 0.70207924
21.79043 3.9199834 -0.6979208
21.79043 3.9199834 -0.59792078
21.79043 3.9199834 -0.49792078
21.79043 3.9199834 -0.39792079
21.79043 3.9199834 -0.29792079
21.79043 3.9199834 -0.1979208
21.79043 3.9199834 -0.097920798
21.79043 3.9199834 0.0020792037
21.79043 3.9199834 0.10207921
21.79043 3.9199834 0.20207921
21.79043 3.9199834 0.3020792
21.79043 3.9199834 0.40207919
21.79043 3.9199834 0.50207919
21.79043 3.9199834 0.60207921
21.79043 3.9199834 0.70207924
21.79043 4.0199833 -0.6979208
21.79043 4.0199833 -0.59792078
21.79043 4.0199833 -0.49792078
21.79043 4.0199833 -0.39792079
21.79043 4.0199833 -0.29792079
21.79043 4.0199833 -0.1979208
21.79043 4.0199833 -0.097920798
21.79043 4.0199833 0.0020792037
21.79043 4.0199833 0.10207921
21.79043 4.0199833 0.20207921
21.79043 4.0199833 0.3020792
21.79043 4.0199833 0.40207919
21.79043 4.0199833 0.50207919
21.79043 4.0199833 0.60207921
21.79043 4.0199833 0.70207924
21.79043 4.1199832 -0.6979208
21.79043 4.1199832 -0.59792078
21.79043 4.1199832 -0.49792078
21.79043 4.1199832 -0.39792079
21.79043 4.1199832 -0.29792079
21.79043 4.1199832 -0.1979208
21.79043 4.1199832 -0.097920798
21.79043 4.1199832 0.0020792037
21.79043 4.1199832 0.10207921
21.79043 4.1199832 0.20207921
21.79043 4.1199832 0.3020792
21.79043 4.1199832 0.40207919
21.79043 4.1199832 0.50207919
21.79043 4.1199832 0.60207921
21.79043 4.1199832 0.70207924
21.79043 4.2199831 -0.6979208
21.79043 4.2199831 -0.59792078
21.79043 4.2199831 -0.49792078
21.79043 4.2199831 -0.39792079
21.79043 4.2199831 -0.29792079
21.79043 4.2199831 -0.1979208
21.79043 4.2199831 -0.097920798
21.79043 4.2199831 0.0020792037
21.79043 4.2199831 0.10207921
21.79043 4.2199831 0.20207921
21.79043 4.2199831 0.3020792
21.79043 4.2199831 0.40207919
21.79043 4.2199831 0.50207919
21.79043 4.2199831 0.60207921
21.79043 4.2199831 0.70207924
21.79043 4.319983 -0.6979208
21.79043 4.319983 -0.59792078
21.79043 4.319983 -0.49792078
21.79043 4.319983 -0.39792079
21.79043 4.319983 -0.29792079
21.79043 4.319983 -0.1979208
21.79043 4.319983 -0.097920798
21.79043 4.319983 0.0020792037
21.79043 4.319983 0.10207921
21.79043 4.319983 0.20207921
21.79043 4.319983 0.3020792
21.79043 4.319983 0.40207919
21.79043 4.319983 0.50207919
21.79043 4.319983 0.60207921
21.79043 4.319983 0.70207924
21.79043 4.4199829 -0.6979208
21.79043 4.4199829 -0.59792078
21.79043 4.4199829 -0.49792078
21.79043 4.4199829 -0.39792079
21.79043 4.4199829 -0.29792079
21.79043 4.4199829 -0.1979208
21.79043 4.4199829 -0.097920798
21.79043 4.4199829 0.0020792037
21.79043 4.4199829 0.10207921
21.79043 4.4199829 0.20207921
21.79043 4.4199829 0.3020792
21.79043 4.4199829 0.40207919
21.79043 4.4199829 0.50207919
21.79043 4.4199829 0.60207921
21.79043 4.4199829 0.70207924
21.79043 4.5199828 -0.6979208
21.79043 4.5199828 -0.59792078
21.79043 4.5199828 -0.49792078
21.79043 4.5199828 -0.39792079
21.79043 4.5199828 -0.29792079
21.79043 4.5199828 -0.1979208
21.79043 4.5199828 -0.097920798
21.79043 4.5199828 0.0020792037
21.79043 4.5199828 0.10207921
21.79043 4.5199828 0.20207921
21.79043 4.5199828 0.3020792
21.79043 4.5199828 0.40207919
21.79043 4.5199828 0.50207919
21.79043 4.5199828 0.60207921
21.79043 4.5199828 0.70207924
21.79043 4.6199827 -0.6979208
21.79043 4.6199827 -0.59792078
21.79043 4.6199827 -0.49792078
21.79043 4.6199827 -0.39792079
21.79043 4.6199827 -0.29792079
21.79043 4.6199827 -0.1979208
21.79043 4.6199827 -0.097920798
21.79043 4.6199827 0.0020792037
21.79043 4.6199827 0.10207921
21.79043 4.6199827 0.20207921
21.79043 4.6199827 0.3020792
21.79043 4.6199827 0.40207919
21.79043 4.6199827 0.50207919
21.79043 4.6199827 0.60207921
21.79043 4.6199827 0.70207924
21.79043 4.7199826 -0.6979208
21.79043 4.7199826 -0.59792078
21.79043 4.7199826 -0.49792078
21.79043 4.7199826 -0.39792079
21.79043 4.7199826 -0.29792079
21.79043 4.7199826 -0.1979208
21.79043 4.7199826 -0.097920798
21.79043 4.7199826 0.0020792037
21.79043 4.7199826 0.10207921
21.79043 4.7199826 0.20207921
21.79043 4.7199826 0.3020792
21.79043 4.7199826 0.40207919
21.79043 4.7199826 0.50207919
21.79043 4.7199826 0.60207921
21.79043 4.7199826 0.70207924
21.79043 4.8199825 -0.6979208
21.79043 4.8199825 -0.59792078
21.79043 4.8199825 -0.49792078
21.79043 4.8199825 -0.39792079
21.79043 4.8199825 -0.29792079
21.79043 4.8199825 -0.1979208
21.79043 4.8199825 -0.097920798
21.79043 4.8199825 0.0020792037
21.79043 4.8199825 0.10207921
21.79043 4.8199825 0.20207921
21.79043 4.8199825 0.3020792
21.79043 4.8199825 0.40207919
21.79043 4.8199825 0.50207919
21.79043 4.8199825 0.60207921
21.79043 4.8199825 0.70207924
21.79043 4.9199824 -0.6979208
21.79043 4.9199824 -0.59792078
21.79043 4.9199824 -0.49792078
21.79043 4.9199824 -0.39792079
21.79043 4.9199824 -0.29792079
21.79043 4.9199824 -0.1979208
21.79043 4.9199824 -0.097920798
21.79043 4.9199824 0.0020792037
21.79043 4.9199824 0.10207921
21.79043 4.9199824 0.20207921
21.79043 4.9199824 0.3020792
21.79043 4.9199824 0.40207919
21.79043 4.9199824 0.50207919
21.79043 4.9199824 0.60207921
21.79043 4.9199824 0.70207924
21.89043 3.5199838 -0.6979208
21.89043 3.5199838 -0.59792078
21.89043 3.5199838 -0.49792078
21.89043 3.5199838 -0.39792079
21.89043 3.5199838 -0.29792079
21.89043 3.5199838 -0.1979208
21.89043 3.5199838 -0.097920798
21.89043 3.5199838 0.0020792037
21.89043 3.5199838 0.10207921
21.89043 3.5199838 0.20207921
21.89043 3.5199838 0.3020792
21.89043 3.5199838 0.40207919
21.89043 3.5199838 0.50207919
21.89043 3.5199838 0.60207921
21.89043 3.5199838 0.70207924
21.89043 3.6199837 -0.6979208
21.89043 3.6199837 -0.59792078
21.89043 3.6199837 -0.49792078
21.89043 3.6199837 -0.39792079
21.89043 3.6199837 -0.29792079
21.89043 3.6199837 -0.1979208
21.89043 3.6199837 -0.097920798
21.89043 3.6199837 0.0020792037
21.89043 3.6199837 0.10207921
21.89043 3.6199837 0.20207921
21.89043 3.6199837 0.3020792
21.89043 3.6199837 0.40207919
21.89043 3.6199837 0.50207919
21.89043 3.6199837 0.60207921
21.89043 3.6199837 0.70207924
21.89043 3.7199836 -0.6979208
21.89043 3.7199836 -0.59792078
21.89043 3.7199836 -0.49792078
21.89043 3.7199836 -0.39792079
21.89043 3.7199836 -0.29792079
21.89043 3.7199836 -0.1979208
21.89043 3.7199836 -0.097920798
21.89043 3.7199836 0.0020792037
21.89043 3.7199836 0.10207921
21.89043 3.7199836 0.20207921
21.89043 3.7199836 0.3020792
21.89043 3.7199836 0.40207919
21.89043 3.7199836 0.50207919
21.89043 3.7199836 0.60207921
21.89043 3.7199836 0.70207924
21.89043 3.8199835 -0.6979208
21.89043 3.8199835 -0.59792078
21.89043 3.8199835 -0.49792078
21.89043 3.8199835 -0.39792079
21.89043 3.8199835 -0.29792079
21.89043 3.8199835 -0.1979208
21.89043 3.8199835 -0.097920798
21.89043 3.8199835 0.0020792037
21.89043 3.8199835 0.10207921
21.89043 3.8199835 0.20207921
21.89043 3.8199835 0.3020792
21.89043 3.8199835 0.40207919
21.89043 3.8199835 0.50207919
21.89043 3.8199835 0.60207921
21.89043 3.8199835 0.70207924
21.89043 3.9199834 -0.6979208
21.89043 3.9199834 -0.59792078
21.89043 3.9199834 -0.49792078
21.89043 3.9199834 -0.39792079
21.89043 3.9199834 -0.29792079
21.89043 3.9199834 -0.1979208
21.89043 3.9199834 -0.097920798
21.89043 3.9199834 0.0020792037
21.89043 3.9199834 0.10207921
21.89043 3.9199834 0.20207921
21.89043 3.9199834 0.3020792
21.89043 3.9199834 0.40207919
21.89043 3.9199834 0.50207919
21.89043 3.9199834 0.60207921
21.89043 3.9199834 0.70207924
21.89043 4.0199833 -0.6979208
21.89043 4.0199833 -0.59792078
21.89043 4.0199833 -0.49792078
21.89043 4.0199833 -0.39792079
21.89043 4.0199833 -0.29792079
21.89043 4.0199833 -0.1979208
21.89043 4.0199833 -0.097920798
21.89043 4.0199833 0.0020792037
21.89043 4.0199833 0.10207921
21.89043 4.0199833 0.20207921
21.89043 4.0199833 0.3020792
21.89043 4.0199833 0.40207919
21.89043 4.0199833 0.50207919
21.89043 4.0199833 0.60207921
21.89043 4.0199833 0.70207924
21.89043 4.1199832 -0.6979208
21.89043 4.1199832 -0.59792078
21.89043 4.1199832 -0.49792078
21.89043 4.1199832 -0.39792079
21.89043 4.1199832 -0.29792079
21.89043 4.1199832 -0.1979208
21.89043 4.1199832 -0.097920798
21.89043 4.1199832 0.0020792037
21.89043 4.1199832 0.10207921
21.89043 4.1199832 0.20207921
21.89043 4.1199832 0.3020792
21.89043 4.1199832 0.40207919
21.89043 4.1199832 0.50207919
21.89043 4.1199832 0.60207921
21.89043 4.1199832 0.70207924
21.89043 4.2199831 -0.6979208
21.89043 4.2199831 -0.59792078
21.89043 4.2199831 -0.49792078
21.89043 4.2199831 -0.39792079
21.89043 4.2199831 -0.29792079
21.89043 4.2199831 -0.1979208
21.89043 4.2199831 -0.097920798
21.89043 4.2199831 0.0020792037
21.89043 4.2199831 0.10207921
21.89043 4.2199831 0.20207921
21.89043 4.2199831 0.3020792
21.89043 4.2199831 0.40207919
21.89043 4.2199831 0.50207919
21.89043 4.2199831 0.60207921
21.89043 4.2199831 0.70207924
21.89043 4.319983 -0.6979208
21.89043 4.319983 -0.59792078
21.89043 4.319983 -0.49792078
21.89043 4.319983 -0.39792079
21.89043 4.319983 -0.29792079
21.89043 4.319983 -0.1979208
21.89043 4.319983 -0.097920798
21.89043 4.319983 0.0020792037
21.89043 4.319983 0.10207921
21.89043 4.319983 0.20207921
21.89043 4.319983 0.3020792
21.89043 4.319983 0.40207919
21.89043 4.319983 0.50207919
21.89043 4.319983 0.60207921
21.89043 4.319983 0.70207924
21.89043 4.4199829 -0.6979208
21.89043 4.4199829 -0.59792078
21.89043 4.4199829 -0.49792078
21.89043 4.4199829 -0.39792079
21.89043 4.4199829 -0.29792079
21.89043 4.4199829 -0.1979208
21.89043 4.4199829 -0.097920798
21.89043 4.4199829 0.0020792037
21.89043 4.4199829 0.10207921
21.89043 4.4199829 0.20207921
21.89043 4.4199829 0.3020792
21.89043 4.4199829 0.40207919
21.89043 4.4199829 0.50207919
21.89043 4.4199829 0.60207921
21.89043 4.4199829 0.70207924
21.89043 4.5199828 -0.6979208
21.89043 4.5199828 -0.59792078
21.89043 4.5199828 -0.49792078
21.89043 4.5199828 -0.39792079
21.89043 4.5199828 -0.29792079
21.89043 4.5199828 -0.1979208
21.89043 4.5199828 -0.097920798
21.89043 4.5199828 0.0020792037
21.89043 4.5199828 0.10207921
21.89043 4.5199828 0.20207921
21.89043 4.5199828 0.3020792
21.89043 4.5199828 0.40207919
21.89043 4.5199828 0.50207919
21.89043 4.5199828 0.60207921
21.89043 4.5199828 0.70207924
21.89043 4.6199827 -0.6979208
21.89043 4.6199827 -0.59792078
21.89043 4.6199827 -0.49792078
21.89043 4.6199827 -0.39792079
21.89043 4.6199827 -0.29792079
21.89043 4.6199827 -0.1979208
21.89043 4.6199827 -0.097920798
21.89043 4.6199827 0.0020792037
21.89043 4.6199827 0.10207921
21.89043 4.6199827 0.20207921
21.89043 4.6199827 0.3020792
21.89043 4.6199827 0.40207919
21.89043 4.6199827 0.50207919
21.89043 4.6199827 0.60207921
21.89043 4.6199827 0.70207924
21.89043 4.7199826 -0.6979208
21.89043 4.7199826 -0.59792078
21.89043 4.7199826 -0.49792078
21.89043 4.7199826 -0.39792079
21.89043 4.7199826 -0.29792079
21.89043 4.7199826 -0.1979208
21.89043 4.7199826 -0.097920798
21.89043 4.7199826 0.0020792037
21.89043 4.7199826 0.10207921
21.89043 4.7199826 0.20207921
21.89043 4.7199826 0.3020792
21.89043 4.7199826 0.40207919
21.89043 4.7199826 0.50207919
21.89043 4.7199826 0.60207921
21.89043 4.7199826 0.70207924
21.89043 4.8199825 -0.6979208
21.89043 4.8199825 -0.59792078
21.89043 4.8199825 -0.49792078
21.89043 4.8199825 -0.39792079
21.89043 4.8199825 -0.29792079
21.89043 4.8199825 -0.1979208
21.89043 4.8199825 -0.097920798
21.89043 4.8199825 0.0020792037
21.89043 4.8199825 0.10207921
21.89043 4.8199825 0.20207921
21.89043 4.8199825 0.3020792
21.89043 4.8199825 0.40207919
21.89043 4.8199825 0.50207919
21.89043 4.8199825 0.60207921
21.89043 4.8199825 0.70207924
21.89043 4.9199824 -0.6979208
21.89043 4.9199824 -0.59792078
21.89043 4.9199824 -0.49792078
21.89043 4.9199824 -0.39792079
21.89043 4.9199824 -0.29792079
21.89043 4.9199824 -0.1979208
21.89043 4.9199824 -0.097920798
21.89043 4.9199824 0.0020792037
21.89043 4.9199824 0.10207921
21.89043 4.9199824 0.20207921
21.89043 4.9199824 0.3020792
21.89043 4.9199824 0.40207919
21.89043 4.9199824 0.50207919
21.89043 4.9199824 0.60207921
21.89043 4.9199824 0.70207924
21.990431 3.5199838 -0.6979208
21.990431 3.5199838 -0.59792078
21.990431 3.5199838 -0.49792078
21.990431 3.5199838 -0.39792079
21.990431 3.5199838 -0.29792079
21.990431 3.5199838 -0.1979208
21.990431 3.5199838 -0.097920798
21.990431 3.5199838 0.0020792037
21.990431 3.5199838 0.10207921
21.990431 3.5199838 0.20207921
21.990431 3.5199838 0.3020792
21.990431 3.5199838 0.40207919
21.990431 3.5199838 0.50207919
21.990431 3.5199838 0.60207921
21.990431 3.5199838 0.70207924
21.990431 3.6199837 -0.6979208
21.990431 3.6199837 -0.59792078
21.990431 3.6199837 -0.49792078
21.990431 3.6199837 -0.39792079
21.990431 3.6199837 -0.29792079
21.990431 3.6199837 -0.1979208
21.990431 3.6199837 -0.097920798
21.990431 3.6199837 0.0020792037
21.990431 3.6199837 0.10207921
21.990431 3.6199837 0.20207921
21.990431 3.6199837 0.3020792
21.990431 3.6199837 0.40207919
21.990431 3.6199837 0.50207919
21.990431 3.6199837 0.60207921
21.990431 3.6199837 0.70207924
21.990431 3.7199836 -0.6979208
21.990431 3.7199836 -0.59792078
21.990431 3.7199836 -0.49792078
21.990431 3.7199836 -0.39792079
21.990431 3.7199836 -0.29792079
21.990431 3.7199836 -0.1979208
21.990431 3.7199836 -0.097920798
21.990431 3.7199836 0.0020792037
21.990431 3.7199836 0.10207921
21.990431 3.7199836 0.20207921
21.990431 3.7199836 0.3020792
21.990431 3.7199836 0.40207919
21.990431 3.7199836 0.50207919
21.990431 3.7199836 0.60207921
21.990431 3.7199836 0.70207924
21.990431 3.8199835 -0.6979208
21.990431 3.8199835 -0.59792078
21.990431 3.8199835 -0.49792078
21.990431 3.8199835 -0.39792079
21.990431 3.8199835 -0.29792079
21.990431 3.8199835 -0.1979208
21.990431 3.8199835 -0.097920798
21.990431 3.8199835 0.0020792037
21.990431 3.8199835 0.10207921
21.990431 3.8199835 0.20207921
21.990431 3.8199835 0.3020792
21.990431 3.8199835 0.40207919
21.990431 3.8199835 0.50207919
21.990431 3.8199835 0.60207921
21.990431 3.8199835 0.70207924
21.990431 3.9199834 -0.6979208
21.990431 3.9199834 -0.59792078
21.990431 3.9199834 -0.49792078
