# .PCD v0.7 - Point Cloud Data file format
VERSION 0.7
FIELDS x y z
SIZE 4 4 4
TYPE F F F
COUNT 1 1 1
WIDTH 1560
HEIGHT 1
VIEWPOINT 0 0 0 1 0 0 0
POINTS 1560
DATA ascii
29.000597 -13.322439 0.10560675
29.000597 -13.322439 0.20560676
29.000597 -13.322439 0.30560675
29.000597 -13.322439 0.40560675
29.000597 -13.322439 0.50560677
29.000597 -13.322439 0.60560679
29.000597 -13.322439 0.70560682
29.000597 -13.322439 0.80560684
29.000597 -13.322439 0.90560687
29.000597 -13.322439 1.0056069
29.000597 -13.322439 1.1056069
29.000597 -13.322439 1.2056069
29.000597 -13.322439 1.305607
15.126839 5.7046776 1.1717138
15.126839 5.7046776 1.1717138
15.126839 5.7046776 1.1717138
15.126839 5.7046776 1.1717138
15.126839 5.7046776 1.1717138
15.126839 5.7046776 1.1717138
15.126839 5.7046776 1.1717138
15.126839 5.7046776 1.1717138
15.126839 5.7046776 1.1717138
15.126839 5.7046776 1.1717138
15.126839 5.7046776 1.1717138
15.126839 5.7046776 1.1717138
15.126839 5.7046776 1.1717138
15.126839 5.7046776 1.1717138
15.126839 5.7046776 1.1717138
15.126839 5.7046776 1.1717138
15.126839 5.7046776 1.1717138
15.126839 5.7046776 1.1717138
15.126839 5.7046776 1.1717138
15.126839 5.7046776 1.1717138
15.126839 5.7046776 1.1717138
15.126839 5.7046776 1.1717138
15.126839 5.7046776 1.1717138
15.126839 5.7046776 1.1717138
15.126839 5.7046776 1.1717138
15.126839 5.7046776 1.1717138
15.126839 5.7046776 1.1717138
15.126839 5.7046776 1.1717138
15.126839 5.7046776 1.1717138
15.126839 5.7046776 1.1717138
15.126839 5.7046776 1.1717138
15.126839 5.7046776 1.1717138
15.126839 5.7046776 1.1717138
15.126839 5.7046776 1.1717138
15.126839 5.7046776 1.1717138
15.126839 5.7046776 1.1717138
15.126839 5.7046776 1.1717138
15.126839 5.7046776 1.1717138
15.126839 5.7046776 1.1717138
15.126839 5.7046776 1.1717138
15.126839 5.7046776 1.1717138
15.126839 5.7046776 1.1717138
15.126839 5.7046776 1.1717138
15.126839 5.7046776 1.1717138
15.126839 5.7046776 1.1717138
15.126839 5.7046776 1.1717138
15.126839 5.7046776 1.1717138
15.126839 5.7046776 1.1717138
15.126839 5.7046776 1.1717138
15.126839 5.7046776 1.1717138
15.126839 5.7046776 1.1717138
15.126839 5.7046776 1.1717138
15.126839 5.7046776 1.1717138
15.126839 5.7046776 1.1717138
15.126839 5.7046776 1.1717138
15.126839 5.7046776 1.1717138
15.126839 5.7046776 1.1717138
15.126839 5.7046776 1.1717138
15.126839 5.7046776 1.1717138
15.126839 5.7046776 1.1717138
15.126839 5.7046776 1.1717138
15.126839 5.7046776 1.1717138
15.126839 5.7046776 1.1717138
15.200412 5.7046776 1.1680322
15.200044 5.7120228 1.1680322
15.198945 5.7192941 1.1680322
15.197125 5.7264199 1.1680322
15.194604 5.7333283 1.1680322
15.191405 5.7399502 1.1680322
15.187561 5.7462201 1.1680322
15.18311 5.7520747 1.1680322
15.178098 5.7574558 1.1680322
15.172572 5.7623096 1.1680322
15.166591 5.7665873 1.1680322
15.160212 5.7702465 1.1680322
15.153499 5.7732506 1.1680322
15.14652 5.7755694 1.1680322
15.139343 5.7771802 1.1680322
15.132043 5.7780662 1.1680322
15.12469 5.7782192 1.1680322
15.117359 5.7776375 1.1680322
15.110123 5.7763267 1.1680322
15.103053 5.7742996 1.1680322
15.096222 5.7715774 1.1680322
15.089696 5.7681866 1.1680322
15.083541 5.7641611 1.1680322
15.077819 5.7595415 1.1680322
15.072586 5.7543736 1.1680322
15.067896 5.7487092 1.1680322
15.063795 5.7426047 1.1680322
15.060324 5.7361212 1.1680322
15.057516 5.7293239 1.1680322
15.055403 5.72228 1.1680322
15.054002 5.7150602 1.1680322
15.053329 5.707737 1.1680322
15.053391 5.7003827 1.1680322
15.054187 5.6930718 1.1680322
15.055708 5.6858768 1.1680322
15.05794 5.6788692 1.1680322
15.060862 5.6721201 1.1680322
15.064442 5.6656961 1.1680322
15.068645 5.6596613 1.1680322
15.073429 5.6540766 1.1680322
15.078748 5.6489973 1.1680322
15.084547 5.6444745 1.1680322
15.090769 5.640553 1.1680322
15.09735 5.6372724 1.1680322
15.104227 5.6346655 1.1680322
15.11133 5.6327577 1.1680322
15.118587 5.6315689 1.1680322
15.125927 5.6311102 1.1680322
15.133276 5.6313868 1.1680322
15.140561 5.6323957 1.1680322
15.147708 5.6341267 1.1680322
15.154648 5.6365623 1.1680322
15.161308 5.639679 1.1680322
15.167625 5.643445 1.1680322
15.173534 5.6478229 1.1680322
15.178978 5.6527686 1.1680322
15.183899 5.6582332 1.1680322
15.188251 5.6641617 1.1680322
15.191989 5.670495 1.1680322
15.195076 5.6771703 1.1680322
15.197481 5.6841197 1.1680322
15.199181 5.6912751 1.1680322
15.200157 5.6985641 1.1680322
15.27325 5.7046776 1.1570238
15.272518 5.7192941 1.1570238
15.270331 5.7337651 1.1570238
15.26671 5.7479448 1.1570238
15.261692 5.7616925 1.1570238
15.255326 5.7748709 1.1570238
15.247677 5.7873473 1.1570238
15.23882 5.7989979 1.1570238
15.228844 5.8097062 1.1570238
15.217849 5.819365 1.1570238
15.205945 5.827878 1.1570238
15.19325 5.8351603 1.1570238
15.179892 5.8411384 1.1570238
15.166003 5.8457532 1.1570238
15.151724 5.848958 1.1570238
15.137196 5.8507218 1.1570238
15.122563 5.8510261 1.1570238
15.107974 5.8498683 1.1570238
15.093574 5.8472595 1.1570238
15.079506 5.8432264 1.1570238
15.06591 5.8378086 1.1570238
15.052923 5.8310609 1.1570238
15.040676 5.8230505 1.1570238
15.029288 5.8138571 1.1570238
15.018876 5.8035727 1.1570238
15.009542 5.7923007 1.1570238
15.001381 5.7801528 1.1570238
14.994473 5.7672505 1.1570238
14.988887 5.7537236 1.1570238
14.98468 5.7397065 1.1570238
14.981893 5.7253394 1.1570238
14.980555 5.7107654 1.1570238
14.980678 5.6961312 1.1570238
14.982261 5.681582 1.1570238
14.985289 5.6672635 1.1570238
14.989731 5.6533194 1.1570238
14.995543 5.6398878 1.1570238
15.002667 5.6271038 1.1570238
15.011032 5.6150951 1.1570238
15.020555 5.6039815 1.1570238
15.031137 5.5938735 1.1570238
15.042678 5.5848732 1.1570238
15.055058 5.5770693 1.1570238
15.068157 5.5705409 1.1570238
15.081841 5.5653529 1.1570238
15.095976 5.5615563 1.1570238
15.110418 5.5591903 1.1570238
15.125025 5.5582781 1.1570238
15.139649 5.5588284 1.1570238
15.154146 5.5608358 1.1570238
15.168369 5.5642805 1.1570238
15.182178 5.569128 1.1570238
15.195435 5.5753298 1.1570238
15.208005 5.5828242 1.1570238
15.219765 5.591536 1.1570238
15.230596 5.6013784 1.1570238
15.24039 5.6122527 1.1570238
15.249049 5.6240506 1.1570238
15.256488 5.6366544 1.1570238
15.262631 5.6499376 1.1570238
15.267418 5.6637678 1.1570238
15.2708 5.6780066 1.1570238
15.272743 5.692512 1.1570238
15.344625 5.7046776 1.1387987
15.343536 5.7264199 1.1387987
15.340283 5.7479448 1.1387987
15.334898 5.7690377 1.1387987
15.327433 5.7894874 1.1387987
15.317964 5.8090897 1.1387987
15.306585 5.8276486 1.1387987
15.29341 5.8449793 1.1387987
15.278571 5.8609076 1.1387987
15.262217 5.8752751 1.1387987
15.244509 5.887938 1.1387987
15.225626 5.8987699 1.1387987
15.205755 5.9076624 1.1387987
15.185096 5.9145269 1.1387987
15.163856 5.9192948 1.1387987
15.142244 5.9219179 1.1387987
15.12048 5.9223704 1.1387987
15.098778 5.9206481 1.1387987
15.077357 5.9167681 1.1387987
15.056431 5.9107685 1.1387987
15.036208 5.90271 1.1387987
15.016891 5.8926725 1.1387987
14.998672 5.8807569 1.1387987
14.981733 5.8670816 1.1387987
14.966245 5.8517838 1.1387987
14.952361 5.8350163 1.1387987
14.940221 5.8169465 1.1387987
14.929945 5.7977548 1.1387987
14.921636 5.7776332 1.1387987
14.915378 5.756783 1.1387987
14.911232 5.7354116 1.1387987
14.909241 5.7137337 1.1387987
14.909424 5.6919646 1.1387987
14.911779 5.6703229 1.1387987
14.916284 5.6490245 1.1387987
14.922892 5.6282821 1.1387987
14.931538 5.6083031 1.1387987
14.942134 5.5892868 1.1387987
14.954576 5.571424 1.1387987
14.96874 5.5548921 1.1387987
14.984484 5.5398569 1.1387987
15.00165 5.5264688 1.1387987
15.020066 5.5148606 1.1387987
15.03955 5.5051498 1.1387987
15.059906 5.4974322 1.1387987
15.08093 5.4917855 1.1387987
15.102413 5.4882655 1.1387987
15.12414 5.4869084 1.1387987
15.145894 5.4877267 1.1387987
15.167458 5.4907131 1.1387987
15.188616 5.4958372 1.1387987
15.209156 5.5030479 1.1387987
15.228874 5.5122733 1.1387987
15.247573 5.5234213 1.1387987
15.265065 5.5363798 1.1387987
15.281177 5.5510206 1.1387987
15.295746 5.5671959 1.1387987
15.308627 5.5847454 1.1387987
15.319692 5.6034932 1.1387987
15.32883 5.6232519 1.1387987
15.33595 5.6438241 1.1387987
15.340981 5.6650043 1.1387987
15.343871 5.6865811 1.1387987
15.413823 5.7046776 1.1135392
15.41239 5.7333283 1.1135392
15.408103 5.7616925 1.1135392
15.401006 5.7894874 1.1135392
15.39117 5.8164349 1.1135392
15.378692 5.8422656 1.1135392
15.363698 5.8667216 1.1135392
15.346336 5.8895583 1.1135392
15.326783 5.9105477 1.1135392
15.305231 5.9294806 1.1135392
15.281898 5.946167 1.1135392
15.257014 5.9604406 1.1135392
15.23083 5.9721589 1.1135392
15.203607 5.981204 1.1135392
15.175616 5.9874868 1.1135392
15.14714 5.9909434 1.1135392
15.118459 5.99154 1.1135392
15.089862 5.9892702 1.1135392
15.061635 5.9841571 1.1135392
15.03406 5.9762516 1.1135392
15.007411 5.965632 1.1135392
14.981956 5.9524055 1.1135392
14.957948 5.9367037 1.1135392
14.935628 5.9186835 1.1135392
14.915217 5.8985252 1.1135392
14.896923 5.87643 1.1135392
14.880924 5.8526187 1.1135392
14.867384 5.8273292 1.1135392
14.856435 5.8008142 1.1135392
14.848188 5.7733388 1.1135392
14.842726 5.7451773 1.1135392
14.840102 5.7166109 1.1135392
14.840343 5.6879253 1.1135392
14.843447 5.6594071 1.1135392
14.849382 5.6313415 1.1135392
14.858089 5.6040082 1.1135392
14.869482 5.5776811 1.1135392
14.883447 5.5526228 1.1135392
14.899842 5.5290837 1.1135392
14.918507 5.5072994 1.1135392
14.939253 5.4874868 1.1135392
14.961872 5.4698448 1.1135392
14.986141 5.4545488 1.1135392
15.011815 5.441752 1.1135392
15.038638 5.4315825 1.1135392
15.066343 5.4241414 1.1135392
15.094652 5.4195032 1.1135392
15.123282 5.4177146 1.1135392
15.151949 5.4187932 1.1135392
15.180365 5.4227285 1.1135392
15.208244 5.4294806 1.1135392
15.235312 5.4389825 1.1135392
15.261295 5.451139 1.1135392
15.285935 5.4658289 1.1135392
15.308986 5.4829054 1.1135392
15.330215 5.5021977 1.1135392
15.349414 5.5235128 1.1135392
15.366388 5.5466385 1.1135392
15.380969 5.5713429 1.1135392
15.393011 5.5973797 1.1135392
15.402392 5.6244888 1.1135392
15.409021 5.6523986 1.1135392
15.412831 5.680831 1.1135392
15.480155 5.7046776 1.0814974
15.47839 5.7399502 1.0814974
15.473112 5.7748709 1.0814974
15.464375 5.8090897 1.0814974
15.452265 5.8422656 1.0814974
15.436903 5.8740664 1.0814974
15.418444 5.9041748 1.0814974
15.39707 5.9322901 1.0814974
15.372996 5.9581313 1.0814974
15.346463 5.9814401 1.0814974
15.317737 6.0019832 1.0814974
15.287102 6.019556 1.0814974
15.254866 6.0339823 1.0814974
15.221351 6.0451183 1.0814974
15.186891 6.0528531 1.0814974
15.151832 6.0571089 1.0814974
15.116522 6.0578432 1.0814974
15.081316 6.0550489 1.0814974
15.046564 6.0487537 1.0814974
15.012615 6.039021 1.0814974
14.979807 6.0259471 1.0814974
14.948468 6.0096636 1.0814974
14.918912 5.9903326 1.0814974
14.891433 5.9681473 1.0814974
14.866305 5.9433298 1.0814974
14.843781 5.9161277 1.0814974
14.824086 5.8868127 1.0814974
14.807415 5.8556781 1.0814974
14.793936 5.8230348 1.0814974
14.783783 5.7892084 1.0814974
14.777058 5.7545381 1.0814974
14.773828 5.7193689 1.0814974
14.774125 5.6840534 1.0814974
14.777946 5.6489439 1.0814974
14.785253 5.6143913 1.0814974
14.795973 5.5807405 1.0814974
14.809999 5.5483284 1.0814974
14.82719 5.517478 1.0814974
14.847377 5.4884987 1.0814974
14.870355 5.461679 1.0814974
14.895895 5.4372873 1.0814974
14.923743 5.4155674 1.0814974
14.953621 5.3967357 1.0814974
14.985229 5.3809814 1.0814974
15.018252 5.3684611 1.0814974
15.052361 5.3593001 1.0814974
15.087213 5.3535905 1.0814974
15.12246 5.3513885 1.0814974
15.157753 5.3527164 1.0814974
15.192736 5.3575606 1.0814974
15.22706 5.3658738 1.0814974
15.260384 5.3775716 1.0814974
15.292373 5.3925381 1.0814974
15.322707 5.4106236 1.0814974
15.351086 5.4316463 1.0814974
15.377223 5.4553981 1.0814974
15.400858 5.4816399 1.0814974
15.421756 5.5101104 1.0814974
15.439707 5.540525 1.0814974
15.454532 5.5725799 1.0814974
15.466083 5.6059542 1.0814974
15.474243 5.6403155 1.0814974
15.478933 5.6753197 1.0814974
15.542956 5.7046776 1.0429935
15.540877 5.7462201 1.0429935
15.534662 5.7873473 1.0429935
15.524371 5.8276486 1.0429935
15.510109 5.8667216 1.0429935
15.492017 5.9041753 1.0429935
15.470276 5.9396353 1.0429935
15.445103 5.9727478 1.0429935
15.416751 6.0031824 1.0429935
15.385502 6.0306339 1.0429935
15.351668 6.0548286 1.0429935
15.315588 6.0755248 1.0429935
15.277622 6.0925155 1.0429935
15.23815 6.1056314 1.0429935
15.197565 6.1147408 1.0429935
15.156274 6.1197529 1.0429935
15.114688 6.1206179 1.0429935
15.073224 6.1173267 1.0429935
15.032296 6.1099129 1.0429935
14.992312 6.0984497 1.0429935
14.953672 6.0830522 1.0429935
14.916763 6.0638742 1.0429935
14.881953 6.0411072 1.0429935
14.849589 6.0149789 1.0429935
14.819996 5.9857497 1.0429935
14.793468 5.9537125 1.0429935
14.770272 5.9191871 1.0429935
14.750638 5.8825183 1.0429935
14.734763 5.8440723 1.0429935
14.722806 5.8042336 1.0429935
14.714886 5.7634006 1.0429935
14.711081 5.7219806 1.0429935
14.711431 5.6803875 1.0429935
14.715931 5.6390371 1.0429935
14.724537 5.5983429 1.0429935
14.737163 5.5587111 1.0429935
14.753681 5.5205374 1.0429935
14.773929 5.4842038 1.0429935
14.797703 5.4500732 1.0429935
14.824765 5.4184866 1.0429935
14.854845 5.3897591 1.0429935
14.887644 5.3641782 1.0429935
14.922832 5.342 1.0429935
14.960058 5.3234448 1.0429935
14.998951 5.3086991 1.0429935
15.039122 5.2979102 1.0429935
15.08017 5.2911854 1.0429935
15.121683 5.2885919 1.0429935
15.163248 5.2901559 1.0429935
15.204449 5.2958612 1.0429935
15.244875 5.3056517 1.0429935
15.284121 5.3194294 1.0429935
15.321795 5.3370562 1.0429935
15.357523 5.3583555 1.0429935
15.390944 5.3831158 1.0429935
15.421728 5.4110889 1.0429935
15.449565 5.4419956 1.0429935
15.474176 5.4755263 1.0429935
15.495318 5.5113473 1.0429935
15.512778 5.5490994 1.0429935
15.526382 5.5884066 1.0429935
15.535994 5.6288753 1.0429935
15.541517 5.6701012 1.0429935
15.6016 5.7046776 0.99841249
15.599228 5.7520747 0.99841249
15.592136 5.7989979 0.99841249
15.580396 5.8449793 0.99841249
15.564123 5.8895583 0.99841249
15.543481 5.9322901 0.99841249
15.518676 5.9727478 0.99841249
15.489956 6.0105271 0.99841249
15.457608 6.0452504 0.99841249
15.421955 6.076571 0.99841249
15.383353 6.1041756 0.99841249
15.342189 6.1277885 0.99841249
15.298872 6.1471739 0.99841249
15.253837 6.162138 0.99841249
15.207533 6.1725311 0.99841249
15.160422 6.1782494 0.99841249
15.112976 6.1792364 0.99841249
15.065668 6.1754818 0.99841249
15.018971 6.1670227 0.99841249
14.973353 6.153944 0.99841249
14.929268 6.1363769 0.99841249
14.887157 6.1144958 0.99841249
14.847441 6.0885205 0.99841249
14.810516 6.0587096 0.99841249
14.776752 6.0253615 0.99841249
14.746487 5.9888091 0.99841249
14.720021 5.9494181 0.99841249
14.69762 5.9075813 0.99841249
14.679508 5.8637171 0.99841249
14.665865 5.818264 0.99841249
14.656829 5.7716761 0.99841249
14.652488 5.7244186 0.99841249
14.652887 5.6769643 0.99841249
14.658021 5.6297865 0.99841249
14.66784 5.5833569 0.99841249
14.682245 5.5381398 0.99841249
14.701092 5.4945865 0.99841249
14.724194 5.4531326 0.99841249
14.751317 5.4141917 0.99841249
14.782193 5.3781533 0.99841249
14.816513 5.3453774 0.99841249
14.853934 5.3161917 0.99841249
14.894081 5.2908874 0.99841249
14.936554 5.2697177 0.99841249
14.980928 5.2528939 0.99841249
15.02676 5.2405844 0.99841249
15.073592 5.2329116 0.99841249
15.120956 5.2299528 0.99841249
15.168379 5.2317371 0.99841249
15.215386 5.2382469 0.99841249
15.26151 5.2494173 0.99841249
15.306287 5.2651362 0.99841249
15.349271 5.2852468 0.99841249
15.390033 5.3095484 0.99841249
15.428165 5.3377981 0.99841249
15.463286 5.3697133 0.99841249
15.495047 5.4049754 0.99841249
15.523128 5.4432321 0.99841249
15.547249 5.4841013 0.99841249
15.567169 5.527174 0.99841249
15.58269 5.5720205 0.99841249
15.593657 5.6181922 0.99841249
15.599958 5.6652284 0.99841249
15.6555 5.7046776 0.94819945
15.652859 5.7574558 0.94819945
15.644962 5.8097062 0.94819945
15.631888 5.8609076 0.94819945
15.613768 5.9105482 0.94819945
15.590782 5.9581313 0.94819945
15.563162 6.0031824 0.94819945
15.531181 6.0452504 0.94819945
15.49516 6.0839162 0.94819945
15.45546 6.1187921 0.94819945
15.412476 6.1495309 0.94819945
15.366637 6.1758242 0.94819945
15.318403 6.1974106 0.94819945
15.268255 6.2140737 0.94819945
15.216694 6.2256465 0.94819945
15.164234 6.2320147 0.94819945
15.111402 6.2331133 0.94819945
15.058723 6.2289324 0.94819945
15.006725 6.2195129 0.94819945
14.955928 6.2049499 0.94819945
14.906837 6.1853876 0.94819945
14.859946 6.1610231 0.94819945
14.815721 6.1320982 0.94819945
14.774605 6.0989032 0.94819945
14.737007 6.061769 0.94819945
14.703305 6.0210667 0.94819945
14.673835 5.9772034 0.94819945
14.64889 5.9306169 0.94819945
14.628722 5.881773 0.94819945
14.613531 5.8311596 0.94819945
14.603468 5.7792826 0.94819945
14.598635 5.7266603 0.94819945
14.599079 5.6738181 0.94819945
14.604796 5.621284 0.94819945
14.61573 5.5695834 0.94819945
14.63177 5.5192327 0.94819945
14.652757 5.4707346 0.94819945
14.678481 5.4245744 0.94819945
14.708684 5.3812127 0.94819945
14.743066 5.341083 0.94819945
14.781282 5.3045859 0.94819945
14.822951 5.2720866 0.94819945
14.867656 5.2439098 0.94819945
14.914951 5.2203364 0.94819945
14.964363 5.2016029 0.94819945
15.015398 5.1878953 0.94819945
15.067547 5.1793518 0.94819945
15.120288 5.1760569 0.94819945
15.173095 5.1780438 0.94819945
15.225439 5.1852927 0.94819945
15.276798 5.197731 0.94819945
15.326659 5.2152348 0.94819945
15.374524 5.2376289 0.94819945
15.419913 5.2646894 0.94819945
15.462375 5.2961459 0.94819945
15.501484 5.3316846 0.94819945
15.536849 5.3709502 0.94819945
15.568118 5.4135504 0.94819945
15.594977 5.4590588 0.94819945
15.61716 5.5070219 0.94819945
15.634443 5.5569596 0.94819945
15.646654 5.6083736 0.94819945
15.653671 5.6607494 0.94819945
15.704118 5.7046776 0.8928563
15.701234 5.7623096 0.8928563
15.692611 5.819365 0.8928563
15.678334 5.8752751 0.8928563
15.658547 5.9294806 0.8928563
15.633449 5.9814401 0.8928563
15.603288 6.0306339 0.8928563
15.568366 6.076571 0.8928563
15.529033 6.1187921 0.8928563
15.485681 6.1568756 0.8928563
15.438744 6.1904411 0.8928563
15.38869 6.2191529 0.8928563
15.33602 6.2427244 0.8928563
15.28126 6.2609196 0.8928563
15.224957 6.2735572 0.8928563
15.167674 6.2805104 0.8928563
15.109982 6.2817106 0.8928563
15.05246 6.2771449 0.8928563
14.99568 6.2668591 0.8928563
14.94021 6.2509565 0.8928563
14.886606 6.2295957 0.8928563
14.835402 6.2029901 0.8928563
14.787109 6.1714053 0.8928563
14.742211 6.1351576 0.8928563
14.701157 6.0946083 0.8928563
14.664355 6.0501633 0.8928563
14.632174 6.0022659 0.8928563
14.604937 5.951395 0.8928563
14.582913 5.8980594 0.8928563
14.566325 5.8427916 0.8928563
14.555337 5.7861438 0.8928563
14.550059 5.7286816 0.8928563
14.550544 5.67098 0.8928563
14.556787 5.613615 0.8928563
14.568727 5.5571599 0.8928563
14.586242 5.5021782 0.8928563
14.609159 5.4492207 0.8928563
14.637248 5.3988152 0.8928563
14.670229 5.3514657 0.8928563
14.707772 5.3076453 0.8928563
14.749503 5.2677922 0.8928563
14.795004 5.2323041 0.8928563
14.843821 5.2015357 0.8928563
14.895465 5.1757946 0.8928563
14.949421 5.1553383 0.8928563
15.00515 5.1403704 0.8928563
15.062095 5.1310406 0.8928563
15.119686 5.1274428 0.8928563
15.177349 5.1296124 0.8928563
15.234507 5.1375279 0.8928563
15.290589 5.1511102 0.8928563
15.345036 5.1702237 0.8928563
15.397303 5.1946769 0.8928563
15.446866 5.224226 0.8928563
15.493233 5.2585759 0.8928563
15.535937 5.2973828 0.8928563
15.574555 5.3402596 0.8928563
15.6087 5.3867769 0.8928563
15.63803 5.436471 0.8928563
15.662251 5.4888449 0.8928563
15.681125 5.543375 0.8928563
15.694458 5.5995169 0.8928563
15.702122 5.6567097 0.8928563
15.746967 5.7046776 0.83293599
15.74387 5.7665873 0.83293599
15.734606 5.827878 0.83293599
15.719271 5.887938 0.83293599
15.698015 5.946167 0.83293599
15.671053 6.0019832 0.83293599
15.638653 6.0548286 0.83293599
15.601139 6.1041756 0.83293599
15.558887 6.1495309 0.83293599
15.512317 6.1904411 0.83293599
15.461896 6.2264981 0.83293599
15.408127 6.2573409 0.83293599
15.351547 6.2826619 0.83293599
15.292723 6.3022079 0.83293599
15.23224 6.3157835 0.83293599
15.170705 6.3232527 0.83293599
15.108731 6.324542 0.83293599
15.046938 6.3196373 0.83293599
14.985944 6.3085885 0.83293599
14.926357 6.2915053 0.83293599
14.868774 6.268559 0.83293599
14.813769 6.2399783 0.83293599
14.761892 6.2060494 0.83293599
14.713662 6.1671109 0.83293599
14.669559 6.1235518 0.83293599
14.630027 6.0758076 0.83293599
14.595457 6.0243549 0.83293599
14.566197 5.9697084 0.83293599
14.54254 5.9124136 0.83293599
14.52472 5.8530436 0.83293599
14.512916 5.7921906 0.83293599
14.507246 5.7304635 0.83293599
14.507768 5.6684785 0.83293599
14.514474 5.6068554 0.83293599
14.527299 5.5462098 0.83293599
14.546115 5.4871473 0.83293599
14.570733 5.4302588 0.83293599
14.600907 5.3761115 0.83293599
14.636336 5.3252478 0.83293599
14.676666 5.2781749 0.83293599
14.721495 5.2353635 0.83293599
14.770373 5.1972408 0.83293599
14.822813 5.1641889 0.83293599
14.87829 5.1365371 0.83293599
14.936252 5.114562 0.83293599
14.996117 5.0984836 0.83293599
15.057288 5.0884614 0.83293599
15.119155 5.0845966 0.83293599
15.181098 5.0869274 0.83293599
15.242499 5.0954304 0.83293599
15.302744 5.1100206 0.83293599
15.361232 5.1305528 0.83293599
15.417377 5.1568213 0.83293599
15.470621 5.1885638 0.83293599
15.520429 5.2254629 0.83293599
15.566304 5.2671504 0.83293599
15.607788 5.3132095 0.83293599
15.644467 5.3631802 0.83293599
15.675974 5.4165626 0.83293599
15.701994 5.4728241 0.83293599
15.722267 5.5314021 0.83293599
15.736591 5.5917115 0.83293599
15.744823 5.6531491 0.83293599
15.783621 5.7046776 0.76903713
15.78034 5.7702465 0.76903713
15.770529 5.8351603 0.76903713
15.754287 5.8987699 0.76903713
15.731775 5.9604406 0.76903713
15.703219 6.0195556 0.76903713
15.668904 6.0755248 0.76903713
15.629173 6.1277885 0.76903713
15.584423 6.1758242 0.76903713
15.535101 6.2191529 0.76903713
15.4817 6.2573409 0.76903713
15.424752 6.2900066 0.76903713
15.364829 6.3168244 0.76903713
15.302527 6.3375254 0.76903713
15.23847 6.3519034 0.76903713
15.173298 6.3598146 0.76903713
15.107661 6.3611798 0.76903713
15.042215 6.3559856 0.76903713
14.977616 6.3442836 0.76903713
14.914508 6.3261905 0.76903713
14.85352 6.301888 0.76903713
14.795264 6.2716179 0.76903713
14.740321 6.2356834 0.76903713
14.68924 6.1944437 0.76903713
14.642531 6.1483097 0.76903713
14.600662 6.0977435 0.76903713
14.56405 6.0432501 0.76903713
14.53306 5.9853735 0.76903713
14.508004 5.9246922 0.76903713
14.489131 5.8618126 0.76903713
14.476629 5.7973633 0.76903713
14.470625 5.7319875 0.76903713
14.471176 5.6663389 0.76903713
14.478279 5.6010737 0.76903713
14.491862 5.5368433 0.76903713
14.51179 5.4742899 0.76903713
14.537864 5.4140387 0.76903713
14.569821 5.3566914 0.76903713
14.607345 5.3028212 0.76903713
14.650059 5.2529659 0.76903713
14.697536 5.207624 0.76903713
14.749304 5.1672482 0.76903713
14.804843 5.1322427 0.76903713
14.8636 5.1029563 0.76903713
14.924987 5.0796824 0.76903713
14.988391 5.0626535 0.76903713
15.053178 5.0520391 0.76903713
15.118701 5.047946 0.76903713
15.184305 5.0504141 0.76903713
15.249335 5.0594196 0.76903713
15.313142 5.0748725 0.76903713
15.375086 5.0966182 0.76903713
15.43455 5.1244392 0.76903713
15.49094 5.1580582 0.76903713
15.543693 5.1971383 0.76903713
15.592279 5.2412901 0.76903713
15.636215 5.2900715 0.76903713
15.675062 5.3429956 0.76903713
15.708431 5.3995333 0.76903713
15.73599 5.4591203 0.76903713
15.757461 5.5211601 0.76903713
15.772632 5.5850344 0.76903713
15.781349 5.6501036 0.76903713
15.813712 5.7046776 0.70179832
15.810281 5.7732506 0.70179832
15.80002 5.8411384 0.70179832
15.783034 5.9076624 0.70179832
15.759491 5.9721589 0.70179832
15.729627 6.0339823 0.70179832
15.69374 6.0925155 0.70179832
15.652188 6.1471739 0.70179832
15.605388 6.1974106 0.70179832
15.553806 6.2427244 0.70179832
15.497958 6.2826619 0.70179832
15.438402 6.3168244 0.70179832
15.375732 6.3448706 0.70179832
15.310576 6.3665204 0.70179832
15.243585 6.381557 0.70179832
15.175426 6.3898306 0.70179832
15.106782 6.3912582 0.70179832
15.038339 6.3858261 0.70179832
14.970779 6.3735876 0.70179832
14.904779 6.3546658 0.70179832
14.840999 6.3292499 0.70179832
14.780073 6.2975931 0.70179832
14.722612 6.2600121 0.70179832
14.669191 6.2168827 0.70179832
14.620342 6.1686354 0.70179832
14.576554 6.1157522 0.70179832
14.538264 6.0587621 0.70179832
14.505856 5.9982338 0.70179832
14.479651 5.9347725 0.70179832
14.459913 5.8690119 0.70179832
14.446839 5.8016095 0.70179832
14.440559 5.7332387 0.70179832
14.441136 5.6645827 0.70179832
14.448565 5.5963268 0.70179832
14.46277 5.5291538 0.70179832
14.483611 5.4637346 0.70179832
14.510879 5.400723 0.70179832
14.544301 5.3407478 0.70179832
14.583544 5.2844095 0.70179832
14.628214 5.2322702 0.70179832
14.677867 5.1848507 0.70179832
14.732006 5.1426253 0.70179832
14.790091 5.1060157 0.70179832
14.85154 5.075388 0.70179832
14.915739 5.0510478 0.70179832
14.982047 5.0332384 0.70179832
15.049803 5.0221376 0.70179832
15.118328 5.0178566 0.70179832
15.186938 5.0204382 0.70179832
15.254948 5.0298567 0.70179832
15.321677 5.0460176 0.70179832
15.38646 5.0687594 0.70179832
15.448648 5.0978551 0.70179832
15.507622 5.1330142 0.70179832
15.562791 5.1738849 0.70179832
15.613604 5.2200594 0.70179832
15.659554 5.2710757 0.70179832
15.70018 5.3264246 0.70179832
15.735078 5.3855529 0.70179832
15.763898 5.4478693 0.70179832
15.786354 5.5127521 0.70179832
15.802219 5.5795527 0.70179832
15.811337 5.647603 0.70179832
15.836941 5.7046776 0.63189125
15.833393 5.7755694 0.63189125
15.822785 5.8457532 0.63189125
15.805225 5.9145269 0.63189125
15.780886 5.981204 0.63189125
15.750011 6.0451183 0.63189125
15.712911 6.1056314 0.63189125
15.669954 6.162138 0.63189125
15.621572 6.2140737 0.63189125
15.568245 6.2609196 0.63189125
15.510509 6.3022079 0.63189125
15.448938 6.3375254 0.63189125
15.38415 6.3665204 0.63189125
15.31679 6.3889022 0.63189125
15.247533 6.4044476 0.63189125
15.177069 6.4130006 0.63189125
15.106104 6.4144764 0.63189125
15.035346 6.4088607 0.63189125
14.965502 6.3962088 0.63189125
14.89727 6.376647 0.63189125
14.831332 6.3503714 0.63189125
14.768347 6.3176441 0.63189125
14.708943 6.2787924 0.63189125
14.653715 6.2342043 0.63189125
14.603214 6.1843252 0.63189125
14.557945 6.1296539 0.63189125
14.51836 6.0707364 0.63189125
14.484856 6.0081611 0.63189125
14.457765 5.9425535 0.63189125
14.43736 5.8745694 0.63189125
14.423843 5.8048878 0.63189125
14.417351 5.7342048 0.63189125
14.417948 5.6632266 0.63189125
14.425628 5.5926628 0.63189125
14.440313 5.5232182 0.63189125
14.461859 5.4555864 0.63189125
14.490048 5.3904438 0.63189125
14.524601 5.3284407 0.63189125
14.56517 5.2701969 0.63189125
14.611352 5.2162943 0.63189125
14.662684 5.1672716 0.63189125
14.718655 5.1236181 0.63189125
14.778703 5.0857706 0.63189125
14.842229 5.0541067 0.63189125
14.9086 5.0289435 0.63189125
14.977151 5.0105319 0.63189125
15.047197 4.9990559 0.63189125
15.11804 4.9946303 0.63189125
15.188971 4.9972992 0.63189125
15.25928 5.0070357 0.63189125
15.328266 5.0237432 0.63189125
15.39524 5.0472541 0.63189125
15.459532 5.0773339 0.63189125
15.520499 5.1136818 0.63189125
15.577534 5.1559348 0.63189125
15.630065 5.2036705 0.63189125
15.677568 5.2564125 0.63189125
15.719568 5.313633 0.63189125
15.755647 5.3747606 0.63189125
15.785442 5.4391851 0.63189125
15.808657 5.5062618 0.63189125
15.825059 5.5753212 0.63189125
15.834485 5.6456733 0.63189125
15.853074 5.7046776 0.56001449
15.849445 5.7771802 0.56001449
15.838597 5.848958 0.56001449
15.820638 5.9192948 0.56001449
15.795746 5.9874868 0.56001449
15.76417 6.0528531 0.56001449
15.726226 6.1147408 0.56001449
15.682294 6.1725311 0.56001449
15.632812 6.2256465 0.56001449
15.578274 6.2735572 0.56001449
15.519225 6.3157835 0.56001449
15.456256 6.3519034 0.56001449
15.389996 6.381557 0.56001449
15.321106 6.4044471 0.56001449
15.250275 6.4203458 0.56001449
15.17821 6.4290934 0.56001449
15.105633 6.430603 0.56001449
15.033267 6.424859 0.56001449
14.961837 6.4119196 0.56001449
14.892055 6.3919139 0.56001449
14.824618 6.3650413 0.56001449
14.760201 6.3315706 0.56001449
14.699449 6.2918358 0.56001449
14.642965 6.2462349 0.56001449
14.591318 6.1952229 0.56001449
14.54502 6.1393089 0.56001449
14.504537 6.0790529 0.56001449
14.47027 6.0150561 0.56001449
14.442564 5.947958 0.56001449
14.421695 5.8784294 0.56001449
14.407871 5.8071642 0.56001449
14.401232 5.7348757 0.56001449
14.401842 5.6622849 0.56001449
14.409697 5.5901179 0.56001449
14.424716 5.5190954 0.56001449
14.446751 5.4499273 0.56001449
14.475581 5.3833046 0.56001449
14.510919 5.3198929 0.56001449
14.55241 5.2603259 0.56001449
14.599641 5.2051988 0.56001449
14.652139 5.1550617 0.56001449
14.70938 5.1104169 0.56001449
14.770793 5.0717092 0.56001449
14.835763 5.0393262 0.56001449
14.903642 5.0135913 0.56001449
14.97375 4.9947615 0.56001449
15.045388 4.9830246 0.56001449
15.11784 4.9784985 0.56001449
15.190382 4.9812279 0.56001449
15.262289 4.9911857 0.56001449
15.332843 5.0082726 0.56001449
15.401338 5.0323181 0.56001449
15.467091 5.0630808 0.56001449
15.529443 5.100255 0.56001449
15.587773 5.1434679 0.56001449
15.641498 5.1922879 0.56001449
15.690081 5.2462282 0.56001449
15.733035 5.3047485 0.56001449
15.769933 5.3672652 0.56001449
15.800406 5.4331532 0.56001449
15.824147 5.5017538 0.56001449
15.840922 5.5723825 0.56001449
15.850562 5.6443324 0.56001449
15.861951 5.7046776 0.4868862
15.858278 5.7780662 0.4868862
15.847298 5.8507218 0.4868862
15.829118 5.9219179 0.4868862
15.803922 5.9909434 0.4868862
15.77196 6.0571089 0.4868862
15.733553 6.1197529 0.4868862
15.689083 6.1782498 0.4868862
15.638996 6.2320147 0.4868862
15.583792 6.2805104 0.4868862
15.524021 6.3232527 0.4868862
15.460282 6.3598146 0.4868862
15.393212 6.3898306 0.4868862
15.32348 6.4130006 0.4868862
15.251783 6.4290934 0.4868862
15.178839 6.4379478 0.4868862
15.105373 6.439476 0.4868862
15.032124 6.4336619 0.4868862
14.95982 6.4205647 0.4868862
14.889185 6.4003139 0.4868862
14.820924 6.3731127 0.4868862
14.75572 6.3392329 0.4868862
14.694224 6.2990127 0.4868862
14.637052 6.2528543 0.4868862
14.584772 6.2012186 0.4868862
14.537909 6.1446218 0.4868862
14.49693 6.0836291 0.4868862
14.462245 6.0188498 0.4868862
14.4342 5.9509315 0.4868862
14.413076 5.8805532 0.4868862
14.399084 5.8084173 0.4868862
14.392363 5.7352448 0.4868862
14.392981 5.6617665 0.4868862
14.40093 5.5887175 0.4868862
14.416134 5.5168271 0.4868862
14.438438 5.4468136 0.4868862
14.467621 5.3793764 0.4868862
14.503389 5.3151898 0.4868862
14.545388 5.2548947 0.4868862
14.593197 5.1990933 0.4868862
14.646337 5.148344 0.4868862
14.704278 5.1031532 0.4868862
14.766441 5.0639725 0.4868862
14.832206 5.0311937 0.4868862
14.900913 5.0051441 0.4868862
14.971879 4.986084 0.4868862
15.044393 4.9742036 0.4868862
15.11773 4.9696221 0.4868862
15.191158 4.9723849 0.4868862
15.263945 4.9824648 0.4868862
15.335361 4.9997606 0.4868862
15.404693 5.0240993 0.4868862
15.47125 5.0552387 0.4868862
15.534364 5.0928669 0.4868862
15.593408 5.1366081 0.4868862
15.647789 5.1860251 0.4868862
15.696965 5.2406244 0.4868862
15.740444 5.2998605 0.4868862
15.777794 5.3631411 0.4868862
15.808638 5.4298344 0.4868862
15.83267 5.4992738 0.4868862
15.84965 5.5707655 0.4868862
15.859408 5.6435952 0.4868862
15.863482 5.7046776 0.41323704
15.859802 5.7782192 0.41323704
15.848799 5.8510261 0.41323704
15.830582 5.9223704 0.41323704
15.805332 5.99154 0.41323704
15.773304 6.0578432 0.41323704
15.734817 6.1206179 0.41323704
15.690255 6.1792364 0.41323704
15.640063 6.2331133 0.41323704
15.584743 6.2817106 0.41323704
15.524849 6.324542 0.41323704
15.460978 6.3611798 0.41323704
15.393767 6.3912582 0.41323704
15.32389 6.4144764 0.41323704
15.252044 6.430603 0.41323704
15.178946 6.439476 0.41323704
15.105329 6.4410071 0.41323704
15.031926 6.4351811 0.41323704
14.959472 6.4220562 0.41323704
14.888689 6.4017634 0.41323704
14.820287 6.3745055 0.41323704
14.754947 6.3405552 0.41323704
14.693323 6.300251 0.41323704
14.636031 6.2539968 0.41323704
14.583642 6.2022533 0.41323704
14.536681 6.1455383 0.41323704
14.495617 6.0844188 0.41323704
14.46086 6.0195045 0.41323704
14.432756 5.9514446 0.41323704
14.411589 5.8809195 0.41323704
14.397567 5.8086333 0.41323704
14.390832 5.7353082 0.41323704
14.391451 5.6616774 0.41323704
14.399418 5.5884762 0.41323704
14.414653 5.5164356 0.41323704
14.437003 5.4462762 0.41323704
14.466247 5.3786983 0.41323704
14.50209 5.3143778 0.41323704
14.544177 5.2539573 0.41323704
14.592085 5.19804 0.41323704
14.645335 5.1471848 0.41323704
14.703398 5.1018996 0.41323704
14.76569 5.0626373 0.41323704
14.831592 5.0297904 0.41323704
14.900443 5.0036864 0.41323704
14.971556 4.9845867 0.41323704
15.044221 4.9726815 0.41323704
15.117711 4.9680905 0.41323704
15.191293 4.9708591 0.41323704
15.26423 4.9809599 0.41323704
15.335795 4.9982915 0.41323704
15.405272 5.0226812 0.41323704
15.471967 5.0538855 0.41323704
15.535213 5.0915918 0.41323704
15.594379 5.1354241 0.41323704
15.648874 5.1849442 0.41323704
15.698153 5.2396574 0.41323704
15.741723 5.299017 0.41323704
15.77915 5.3624291 0.41323704
15.810059 5.4292617 0.41323704
15.834142 5.4988456 0.41323704
15.851156 5.5704861 0.41323704
15.860935 5.6434679 0.41323704
15.857654 5.7046776 0.33980286
15.854003 5.7776375 0.33980286
15.843086 5.8498683 0.33980286
15.825013 5.9206481 0.33980286
15.799964 5.9892702 0.33980286
15.768189 6.0550489 0.33980286
15.730006 6.1173267 0.33980286
15.685797 6.1754818 0.33980286
15.636003 6.2289324 0.33980286
15.58112 6.2771449 0.33980286
15.5217 6.3196373 0.33980286
15.458334 6.3559856 0.33980286
15.391655 6.3858261 0.33980286
15.32233 6.4088607 0.33980286
15.251053 6.424859 0.33980286
15.178535 6.4336619 0.33980286
15.105499 6.4351811 0.33980286
15.032677 6.4294014 0.33980286
14.960795 6.4163799 0.33980286
14.890574 6.3962479 0.33980286
14.822712 6.369206 0.33980286
14.75789 6.3355241 0.33980286
14.696754 6.2955389 0.33980286
14.639915 6.24965 0.33980286
14.58794 6.1983166 0.33980286
14.541351 6.1420503 0.33980286
14.500611 6.0814142 0.33980286
14.466129 6.0170135 0.33980286
14.438249 5.9494925 0.33980286
14.417248 5.8795252 0.33980286
14.403337 5.8078108 0.33980286
14.396656 5.7350659 0.33980286
14.39727 5.6620173 0.33980286
14.405173 5.5893955 0.33980286
14.420288 5.5179253 0.33980286
14.442462 5.4483209 0.33980286
14.471474 5.381278 0.33980286
14.507034 5.3174663 0.33980286
14.548787 5.2575235 0.33980286
14.596315 5.2020483 0.33980286
14.649145 5.1515956 0.33980286
14.706748 5.1066689 0.33980286
14.768548 5.0677176 0.33980286
14.833927 5.03513 0.33980286
14.902234 5.009233 0.33980286
14.972785 4.990284 0.33980286
15.044874 4.9784732 0.33980286
15.117784 4.9739184 0.33980286
15.190783 4.9766655 0.33980286
15.263144 4.9866862 0.33980286
15.334142 5.0038805 0.33980286
15.403069 5.0280776 0.33980286
15.469236 5.0590348 0.33980286
15.531982 5.0964427 0.33980286
15.59068 5.1399283 0.33980286
15.644744 5.1890564 0.33980286
15.693632 5.2433367 0.33980286
15.736858 5.3022265 0.33980286
15.773989 5.3651371 0.33980286
15.804653 5.4314408 0.33980286
15.828545 5.500474 0.33980286
15.845426 5.571548 0.33980286
15.855126 5.6439519 0.33980286
15.844523 5.7046776 0.26731744
15.840938 5.7763267 0.26731744
15.830217 5.8472595 0.26731744
15.812469 5.9167681 0.26731744
15.78787 5.9841571 0.26731744
15.756666 6.0487537 0.26731744
15.71917 6.1099129 0.26731744
15.675755 6.1670227 0.26731744
15.626854 6.2195129 0.26731744
15.572959 6.2668591 0.26731744
15.514606 6.3085885 0.26731744
15.452377 6.3442836 0.26731744
15.386897 6.3735876 0.26731744
15.318818 6.3962088 0.26731744
15.248821 6.4119196 0.26731744
15.177606 6.4205647 0.26731744
15.105883 6.4220562 0.26731744
15.034369 6.4163799 0.26731744
14.963779 6.4035931 0.26731744
14.894818 6.3838224 0.26731744
14.828176 6.3572664 0.26731744
14.764519 6.3241897 0.26731744
14.70448 6.2849231 0.26731744
14.648663 6.2398586 0.26731744
14.597623 6.1894474 0.26731744
14.55187 6.134192 0.26731744
14.511863 6.074645 0.26731744
14.478 6.0114017 0.26731744
14.450621 5.9450936 0.26731744
14.429997 5.8763838 0.26731744
14.416336 5.8059578 0.26731744
14.409775 5.73452 0.26731744
14.410378 5.6627841 0.26731744
14.418139 5.5914664 0.26731744
14.432982 5.5212803 0.26731744
14.454758 5.4529266 0.26731744
14.483249 5.3870883 0.26731744
14.518169 5.3244233 0.26731744
14.559173 5.2655573 0.26731744
14.605847 5.2110791 0.26731744
14.657728 5.1615329 0.26731744
14.714295 5.1174135 0.26731744
14.774985 5.0791616 0.26731744
14.83919 5.0471597 0.26731744
14.906269 5.0217276 0.26731744
14.975553 5.0031195 0.26731744
15.046347 4.9915209 0.26731744
15.117946 4.9870481 0.26731744
15.189633 4.9897456 0.26731744
15.260695 4.9995861 0.26731744
15.330417 5.0164719 0.26731744
15.398106 5.0402341 0.26731744
15.463084 5.0706348 0.26731744
15.524703 5.1073709 0.26731744
15.582347 5.150075 0.26731744
15.635439 5.1983209 0.26731744
15.683449 5.2516255 0.26731744
15.725898 5.3094573 0.26731744
15.762362 5.3712378 0.26731744
15.792475 5.4363499 0.26731744
15.815937 5.5041432 0.26731744
15.832515 5.5739398 0.26731744
15.842041 5.6450429 0.26731744
15.824222 5.7046776 0.19650504
15.820738 5.7742996 0.19650504
15.810321 5.8432264 0.19650504
15.793075 5.9107685 0.19650504
15.769171 5.9762516 0.19650504
15.73885 6.039021 0.19650504
15.702414 6.0984497 0.19650504
15.660227 6.153944 0.19650504
15.61271 6.2049499 0.19650504
15.560339 6.2509565 0.19650504
15.503636 6.2915053 0.19650504
15.443169 6.3261905 0.19650504
15.37954 6.3546658 0.19650504
15.313388 6.376647 0.19650504
15.245371 6.3919134 0.19650504
15.176169 6.4003139 0.19650504
15.106475 6.4017634 0.19650504
15.036984 6.3962479 0.19650504
14.968391 6.3838224 0.19650504
14.901381 6.3646111 0.19650504
14.836625 6.3388062 0.19650504
14.774768 6.3066654 0.19650504
14.716428 6.2685094 0.19650504
14.662189 6.22472 0.19650504
14.612593 6.1757345 0.19650504
14.568134 6.1220422 0.19650504
14.529259 6.0641799 0.19650504
14.496354 6.0027256 0.19650504
14.469748 5.938293 0.19650504
14.449709 5.8715262 0.19650504
14.436435 5.803093 0.19650504
14.430058 5.733676 0.19650504
14.430645 5.663969 0.19650504
14.438187 5.5946689 0.19650504
14.45261 5.5264683 0.19650504
14.473769 5.4600482 0.19650504
14.501454 5.3960719 0.19650504
14.535387 5.3351798 0.19650504
14.575231 5.2779789 0.19650504
14.620584 5.2250419 0.19650504
14.670998 5.176897 0.19650504
14.725965 5.1340256 0.19650504
14.784938 5.0968561 0.19650504
14.847327 5.0657592 0.19650504
14.912509 5.0410466 0.19650504
14.979832 5.022965 0.19650504
15.048624 5.0116944 0.19650504
15.118197 5.0073481 0.19650504
15.187858 5.0099688 0.19650504
15.256907 5.0195312 0.19650504
15.324658 5.0359392 0.19650504
15.390432 5.0590296 0.19650504
15.453572 5.0885706 0.19650504
15.513449 5.1242671 0.19650504
15.569462 5.1657634 0.19650504
15.621052 5.2126441 0.19650504
15.667704 5.2644415 0.19650504
15.708952 5.3206367 0.19650504
15.744384 5.3806701 0.19650504
15.773645 5.4439402 0.19650504
15.796445 5.5098157 0.19650504
15.812553 5.5776381 0.19650504
15.82181 5.6467299 0.19650504
15.796952 5.7046776 0.12807322
15.793605 5.7715774 0.12807322
15.783595 5.8378086 0.12807322
15.767023 5.90271 0.12807322
15.744055 5.965632 0.12807322
15.714919 6.0259471 0.12807322
15.679908 6.0830522 0.12807322
15.63937 6.1363769 0.12807322
15.593712 6.1853876 0.12807322
15.543388 6.2295957 0.12807322
15.488903 6.268559 0.12807322
15.430799 6.301888 0.12807322
15.369659 6.3292499 0.12807322
15.306093 6.3503714 0.12807322
15.240736 6.3650413 0.12807322
15.17424 6.3731127 0.12807322
15.107271 6.3745055 0.12807322
15.040498 6.369206 0.12807322
14.974587 6.3572664 0.12807322
14.910197 6.3388062 0.12807322
14.847973 6.3140101 0.12807322
14.788534 6.2831259 0.12807322
14.732476 6.2464623 0.12807322
14.680358 6.2043848 0.12807322
14.632701 6.1573148 0.12807322
14.589981 6.105722 0.12807322
14.552626 6.0501223 0.12807322
14.521008 5.9910707 0.12807322
14.495442 5.9291582 0.12807322
14.476187 5.8650022 0.12807322
14.463431 5.7992444 0.12807322
14.457304 5.732542 0.12807322
14.457868 5.6655607 0.12807322
14.465115 5.5989709 0.12807322
14.478973 5.5334368 0.12807322
14.499306 5.4696136 0.12807322
14.525908 5.4081392 0.12807322
14.558515 5.349628 0.12807322
14.5968 5.2946639 0.12807322
14.640381 5.2437968 0.12807322
14.688822 5.1975346 0.12807322
14.74164 5.1563396 0.12807322
14.798307 5.1206231 0.12807322
14.858256 5.0907426 0.12807322
14.92089 5.0669961 0.12807322
14.98558 5.0496216 0.12807322
15.051682 5.0387917 0.12807322
15.118535 5.034615 0.12807322
15.185472 5.0371337 0.12807322
15.251822 5.0463223 0.12807322
15.316923 5.062089 0.12807322
15.380125 5.0842757 0.12807322
15.440797 5.1126614 0.12807322
15.498331 5.1469626 0.12807322
15.552154 5.1868362 0.12807322
15.601727 5.231884 0.12807322
15.646555 5.2816558 0.12807322
15.68619 5.3356538 0.12807322
15.720237 5.3933392 0.12807322
15.748354 5.4541359 0.12807322
15.770262 5.5174351 0.12807322
15.78574 5.5826058 0.12807322
15.794635 5.6489959 0.12807322
15.762987 5.7046776 0.062705666
15.759809 5.7681866 0.062705666
15.750307 5.8310609 0.062705666
15.734575 5.8926725 0.062705666
15.71277 5.9524055 0.062705666
15.685112 6.0096636 0.062705666
15.651875 6.0638742 0.062705666
15.613392 6.1144958 0.062705666
15.570047 6.1610227 0.062705666
15.522275 6.2029901 0.062705666
15.470551 6.2399783 0.062705666
15.415393 6.2716184 0.062705666
15.357352 6.2975931 0.062705666
15.297008 6.3176441 0.062705666
15.234963 6.3315701 0.062705666
15.171838 6.3392329 0.062705666
15.108263 6.3405552 0.062705666
15.044874 6.3355241 0.062705666
14.982305 6.3241897 0.062705666
14.921178 6.3066654 0.062705666
14.862107 6.2831259 0.062705666
14.805681 6.2538071 0.062705666
14.752464 6.2190018 0.062705666
14.702988 6.1790571 0.062705666
14.657746 6.1343727 0.062705666
14.617192 6.0853949 0.062705666
14.58173 6.0326133 0.062705666
14.551714 5.9765549 0.062705666
14.527445 5.9177804 0.062705666
14.509165 5.8568764 0.062705666
14.497056 5.7944512 0.062705666
14.49124 5.7311296 0.062705666
14.491775 5.6675434 0.062705666
14.498654 5.6043286 0.062705666
14.511811 5.5421162 0.062705666
14.531113 5.4815278 0.062705666
14.556367 5.4231696 0.062705666
14.58732 5.3676238 0.062705666
14.623665 5.3154454 0.062705666
14.665037 5.2671566 0.062705666
14.711023 5.2232394 0.062705666
14.761165 5.1841321 0.062705666
14.814959 5.1502261 0.062705666
14.87187 5.12186 0.062705666
14.931328 5.0993176 0.062705666
14.99274 5.0828233 0.062705666
15.055491 5.0725422 0.062705666
15.118957 5.0685778 0.062705666
15.1825 5.0709686 0.062705666
15.245487 5.0796909 0.062705666
15.307288 5.0946584 0.062705666
15.367288 5.1157207 0.062705666
15.424884 5.1426682 0.062705666
15.479502 5.1752305 0.062705666
15.530597 5.2130833 0.062705666
15.577657 5.2558475 0.062705666
15.620213 5.3030968 0.062705666
15.657839 5.3543582 0.062705666
15.69016 5.4091196 0.062705666
15.716852 5.4668345 0.062705666
15.737649 5.5269256 0.062705666
15.752343 5.5887928 0.062705666
15.760788 5.6518183 0.062705666
15.722667 5.7046776 0.0010555089
15.719689 5.7641611 0.0010555089
15.71079 5.8230505 0.0010555089
15.696054 5.8807569 0.0010555089
15.675632 5.9367037 0.0010555089
15.649727 5.9903326 0.0010555089
15.618597 6.0411072 0.0010555089
15.582553 6.0885205 0.0010555089
15.541956 6.1320982 0.0010555089
15.497211 6.1714058 0.0010555089
15.448766 6.2060494 0.0010555089
15.397103 6.2356834 0.0010555089
15.342741 6.2600126 0.0010555089
15.286222 6.2787924 0.0010555089
15.228109 6.2918358 0.0010555089
15.168985 6.2990127 0.0010555089
15.109441 6.300251 0.0010555089
15.05007 6.2955389 0.0010555089
14.991466 6.2849231 0.0010555089
14.934214 6.2685094 0.0010555089
14.878887 6.2464623 0.0010555089
14.826037 6.2190018 0.0010555089
14.776194 6.1864023 0.0010555089
14.729853 6.1489897 0.0010555089
14.687479 6.1071372 0.0010555089
14.649495 6.061264 0.0010555089
14.616281 6.0118279 0.0010555089
14.588167 5.9593225 0.0010555089
14.565436 5.904273 0.0010555089
14.548315 5.8472295 0.0010555089
14.536974 5.7887611 0.0010555089
14.531527 5.7294531 0.0010555089
14.532027 5.6698971 0.0010555089
14.538471 5.6106887 0.0010555089
14.550794 5.5524197 0.0010555089
14.568871 5.4956717 0.0010555089
14.592525 5.4410124 0.0010555089
14.621517 5.3889871 0.0010555089
14.655558 5.3401165 0.0010555089
14.694307 5.294888 0.0010555089
14.737379 5.2537541 0.0010555089
14.784342 5.2171259 0.0010555089
14.834727 5.185369 0.0010555089
14.88803 5.1588011 0.0010555089
14.94372 5.1376867 0.0010555089
15.00124 5.1222382 0.0010555089
15.060014 5.1126089 0.0010555089
15.119456 5.1088953 0.0010555089
15.178971 5.111135 0.0010555089
15.237967 5.1193047 0.0010555089
15.295851 5.1333237 0.0010555089
15.352047 5.1530509 0.0010555089
15.405993 5.1782899 0.0010555089
15.457149 5.2087889 0.0010555089
15.505005 5.2442422 0.0010555089
15.549083 5.284296 0.0010555089
15.588942 5.3285499 0.0010555089
15.624183 5.3765621 0.0010555089
15.654455 5.4278531 0.0010555089
15.679456 5.4819098 0.0010555089
15.698935 5.5381923 0.0010555089
15.712697 5.596138 0.0010555089
15.720606 5.6551685 0.0010555089
15.676392 5.7046776 -0.056261271
15.673647 5.7595415 -0.056261271
15.665438 5.8138571 -0.056261271
15.651847 5.8670816 -0.056261271
15.633011 5.9186835 -0.056261271
15.609118 5.9681473 -0.056261271
15.580404 6.0149789 -0.056261271
15.54716 6.0587096 -0.056261271
15.509716 6.0989032 -0.056261271
15.468447 6.1351576 -0.056261271
15.423763 6.1671109 -0.056261271
15.376114 6.1944437 -0.056261271
15.325974 6.2168827 -0.056261271
15.273844 6.2342043 -0.056261271
15.220244 6.2462349 -0.056261271
15.165712 6.2528543 -0.056261271
15.110792 6.2539964 -0.056261271
15.056031 6.24965 -0.056261271
15.001979 6.2398586 -0.056261271
14.949174 6.22472 -0.056261271
14.898144 6.2043848 -0.056261271
14.849399 6.1790571 -0.056261271
14.803426 6.1489897 -0.056261271
14.760685 6.1144824 -0.056261271
14.721601 6.0758805 -0.056261271
14.686567 6.0335703 -0.056261271
14.655932 5.9879732 -0.056261271
14.630003 5.9395456 -0.056261271
14.609037 5.8887715 -0.056261271
14.593246 5.8361583 -0.056261271
14.582785 5.7822309 -0.056261271
14.577761 5.727529 -0.056261271
14.578222 5.6725984 -0.056261271
14.584166 5.6179886 -0.056261271
14.595531 5.5642447 -0.056261271
14.612206 5.5119042 -0.056261271
14.634022 5.4614897 -0.056261271
14.660762 5.4135051 -0.056261271
14.69216 5.3684297 -0.056261271
14.7279 5.326714 -0.056261271
14.767626 5.288775 -0.056261271
14.810942 5.2549911 -0.056261271
14.857413 5.2257009 -0.056261271
14.906577 5.2011957 -0.056261271
14.957942 5.1817217 -0.056261271
15.010994 5.1674728 -0.056261271
15.065204 5.1585913 -0.056261271
15.120029 5.1551666 -0.056261271
15.174923 5.1572318 -0.056261271
15.229336 5.1647673 -0.056261271
15.282725 5.1776972 -0.056261271
15.334557 5.1958923 -0.056261271
15.384313 5.2191715 -0.056261271
15.431496 5.2473016 -0.056261271
15.475636 5.2800012 -0.056261271
15.51629 5.3169446 -0.056261271
15.553053 5.3577619 -0.056261271
15.585557 5.4020452 -0.056261271
15.613478 5.4493523 -0.056261271
15.636537 5.4992108 -0.056261271
15.654503 5.5511222 -0.056261271
15.667196 5.6045675 -0.056261271
15.674492 5.6590137 -0.056261271
15.624626 5.7046776 -0.10867196
15.62214 5.7543736 -0.10867196
15.614704 5.8035727 -0.10867196
15.602394 5.8517838 -0.10867196
15.585332 5.8985252 -0.10867196
15.563688 5.9433298 -0.10867196
15.537681 5.9857497 -0.10867196
15.507568 6.0253615 -0.10867196
15.473651 6.061769 -0.10867196
15.436269 6.0946083 -0.10867196
15.395795 6.1235518 -0.10867196
15.352633 6.1483097 -0.10867196
15.307216 6.1686354 -0.10867196
15.259996 6.1843252 -0.10867196
15.211446 6.1952229 -0.10867196
15.16205 6.2012186 -0.10867196
15.112304 6.2022533 -0.10867196
15.062701 6.1983166 -0.10867196
15.013741 6.1894474 -0.10867196
14.965909 6.1757345 -0.10867196
14.919685 6.1573148 -0.10867196
14.875532 6.1343727 -0.10867196
14.83389 6.1071372 -0.10867196
14.795175 6.0758805 -0.10867196
14.759773 6.040915 -0.10867196
14.728039 6.0025897 -0.10867196
14.70029 5.961288 -0.10867196
14.676803 5.9174223 -0.10867196
14.657812 5.8714309 -0.10867196
14.643507 5.8237734 -0.10867196
14.634032 5.7749257 -0.10867196
14.629481 5.7253761 -0.10867196
14.6299 5.6756201 -0.10867196
14.635283 5.6261539 -0.10867196
14.645578 5.5774727 -0.10867196
