# .PCD v0.7 - Point Cloud Data file format
VERSION 0.7
FIELDS x y z
SIZE 4 4 4
TYPE F F F
COUNT 1 1 1
WIDTH 1521
HEIGHT 1
VIEWPOINT 0 0 0 1 0 0 0
POINTS 1521
DATA ascii
13.174355 3.7120221 0.43864918
13.183566 3.7386382 0.43864918
13.190074 3.766041 0.43864918
13.193814 3.793957 0.43864918
13.215704 3.8173699 0.4094021
13.214191 3.8475881 0.4094021
13.20967 3.8775041 0.4094021
13.202185 3.9068193 0.4094021
13.19181 3.9352407 0.4094021
13.17865 3.9624846 0.4094021
13.162835 3.9882784 0.4094021
13.144526 4.0123649 0.4094021
13.123901 4.0345025 0.4094021
13.101171 4.054471 0.4094021
13.07656 4.0720701 0.4094021
13.050316 4.0871248 0.4094021
13.022699 4.099484 0.4094021
12.993987 4.109024 0.4094021
12.964465 4.1156502 0.4094021
12.93443 4.1192961 0.4094021
12.904181 4.1199255 0.4094021
12.87402 4.1175318 0.4094021
12.844249 4.1121387 0.4094021
12.815165 4.1038003 0.4094021
12.787058 4.0926003 0.4094021
12.76021 4.07865 0.4094021
12.734889 4.0620894 0.4094021
12.711348 4.0430832 0.4094021
12.689821 4.0218225 0.4094021
12.670526 3.9985182 0.4094021
12.653652 3.9734044 0.4094021
12.639371 3.9467313 0.4094021
12.627823 3.9187658 0.4094021
12.619125 3.8897872 0.4094021
12.613364 3.860085 0.4094021
12.610597 3.8299561 0.4094021
12.61085 3.7997012 0.4094021
12.614124 3.769623 0.4094021
12.620384 3.7400219 0.4094021
12.629568 3.7111936 0.4094021
12.641584 3.6834261 0.4094021
12.656312 3.656997 0.4094021
12.673605 3.6321704 0.4094021
12.693291 3.609194 0.4094021
12.715171 3.5882978 0.4094021
12.739029 3.5696905 0.4094021
12.764625 3.5535576 0.4094021
12.791703 3.540061 0.4094021
12.819994 3.5293348 0.4094021
12.849214 3.5214868 0.4094021
12.879072 3.5165951 0.4094021
12.909268 3.5147085 0.4094021
12.939503 3.5158463 0.4094021
12.969473 3.5199966 0.4094021
12.998878 3.5271182 0.4094021
13.027427 3.5371399 0.4094021
13.054832 3.5499616 0.4094021
13.080819 3.565455 0.4094021
13.10513 3.5834656 0.4094021
13.127522 3.6038132 0.4094021
13.147771 3.6262946 0.4094021
13.165673 3.6506851 0.4094021
13.181052 3.6767411 0.4094021
13.193752 3.7042024 0.4094021
13.203648 3.7327943 0.4094021
13.210639 3.7622311 0.4094021
13.214657 3.7922189 0.4094021
13.233594 3.8173699 0.37821311
13.231993 3.8493741 0.37821311
13.227204 3.8810585 0.37821311
13.219276 3.9121063 0.37821311
13.208288 3.9422078 0.37821311
13.19435 3.9710619 0.37821311
13.177601 3.9983802 0.37821311
13.158209 4.02389 0.37821311
13.136366 4.0473366 0.37821311
13.112292 4.0684853 0.37821311
13.086226 4.0871248 0.37821311
13.058431 4.1030688 0.37821311
13.029182 4.1161585 0.37821311
12.998773 4.1262627 0.37821311
12.967506 4.1332808 0.37821311
12.935696 4.1371422 0.37821311
12.903659 4.1378083 0.37821311
12.871715 4.135273 0.37821311
12.840184 4.1295614 0.37821311
12.809381 4.1207304 0.37821311
12.779613 4.1088681 0.37821311
12.751178 4.0940933 0.37821311
12.72436 4.0765538 0.37821311
12.699428 4.0564246 0.37821311
12.676629 4.0339065 0.37821311
12.656193 4.0092254 0.37821311
12.638322 3.9826269 0.37821311
12.623197 3.9543774 0.37821311
12.610966 3.9247589 0.37821311
12.601754 3.8940675 0.37821311
12.595653 3.8626096 0.37821311
12.592721 3.8306999 0.37821311
12.592991 3.7986569 0.37821311
12.596457 3.7668009 0.37821311
12.603087 3.7354503 0.37821311
12.612814 3.7049179 0.37821311
12.625541 3.6755092 0.37821311
12.641139 3.6475179 0.37821311
12.659454 3.6212239 0.37821311
12.680303 3.5968895 0.37821311
12.703477 3.5747583 0.37821311
12.728745 3.5550508 0.37821311
12.755854 3.5379646 0.37821311
12.784533 3.5236702 0.37821311
12.814495 3.5123103 0.37821311
12.845443 3.5039983 0.37821311
12.877066 3.4988174 0.37821311
12.909047 3.4968195 0.37821311
12.941069 3.4980242 0.37821311
12.97281 3.5024199 0.37821311
13.003954 3.5099626 0.37821311
13.034188 3.5205765 0.37821311
13.063213 3.5341558 0.37821311
13.090737 3.5505652 0.37821311
13.116486 3.5696404 0.37821311
13.140201 3.5911906 0.37821311
13.161646 3.6150007 0.37821311
13.180607 3.6408331 0.37821311
13.196895 3.6684291 0.37821311
13.210345 3.6975133 0.37821311
13.220825 3.7277954 0.37821311
13.22823 3.7589722 0.37821311
13.232486 3.7907324 0.37821311
13.248281 3.8173699 0.34539387
13.246607 3.8508403 0.34539387
13.241599 3.8839765 0.34539387
13.233308 3.9164469 0.34539387
13.221817 3.9479275 0.34539387
13.20724 3.9781034 0.34539387
13.189723 4.0066733 0.34539387
13.169442 4.0333519 0.34539387
13.146599 4.0578728 0.34539387
13.121422 4.0799904 0.34539387
13.094162 4.099484 0.34539387
13.065093 4.1161585 0.34539387
13.034504 4.129848 0.34539387
13.002702 4.1404152 0.34539387
12.970003 4.1477547 0.34539387
12.936734 4.1517925 0.34539387
12.90323 4.1524897 0.34539387
12.869823 4.149838 0.34539387
12.836846 4.1438646 0.34539387
12.804632 4.1346288 0.34539387
12.7735 4.1222234 0.34539387
12.743763 4.1067719 0.34539387
12.715716 4.0884285 0.34539387
12.689642 4.0673771 0.34539387
12.665798 4.0438275 0.34539387
12.644425 4.0180154 0.34539387
12.625736 3.9901984 0.34539387
12.609918 3.9606545 0.34539387
12.597127 3.9296792 0.34539387
12.587493 3.8975816 0.34539387
12.581112 3.8646824 0.34539387
12.578047 3.8313107 0.34539387
12.578328 3.7977996 0.34539387
12.581954 3.7644839 0.34539387
12.588888 3.7316968 0.34539387
12.59906 3.6997657 0.34539387
12.61237 3.6690097 0.34539387
12.628683 3.6397362 0.34539387
12.647837 3.6122372 0.34539387
12.669641 3.5867879 0.34539387
12.693876 3.5636427 0.34539387
12.720302 3.5430324 0.34539387
12.748652 3.5251634 0.34539387
12.778646 3.5102139 0.34539387
12.809981 3.4983335 0.34539387
12.842346 3.4896407 0.34539387
12.875418 3.4842224 0.34539387
12.908865 3.4821329 0.34539387
12.942353 3.4833932 0.34539387
12.975549 3.4879901 0.34539387
13.00812 3.4958782 0.34539387
13.039741 3.5069785 0.34539387
13.070094 3.5211802 0.34539387
13.09888 3.5383413 0.34539387
13.125807 3.5582902 0.34539387
13.150609 3.580828 0.34539387
13.173037 3.6057291 0.34539387
13.192866 3.6327448 0.34539387
13.2099 3.6616054 0.34539387
13.223968 3.6920221 0.34539387
13.234928 3.7236912 0.34539387
13.242672 3.7562966 0.34539387
13.247123 3.7895119 0.34539387
13.25962 3.8173699 0.31127226
13.257888 3.8519723 0.31127226
13.25271 3.8862288 0.31127226
13.244139 3.9197974 0.31127226
13.23226 3.9523425 0.31127226
13.21719 3.9835391 0.31127226
13.19908 4.0130754 0.31127226
13.178114 4.0406561 0.31127226
13.154498 4.0660057 0.31127226
13.128469 4.0888715 0.31127226
13.100288 4.109024 0.31127226
13.070236 4.1262627 0.31127226
13.038612 4.1404152 0.31127226
13.005734 4.1513395 0.31127226
12.97193 4.158927 0.31127226
12.937536 4.1631021 0.31127226
12.902899 4.1638227 0.31127226
12.868361 4.1610813 0.31127226
12.83427 4.1549058 0.31127226
12.800967 4.1453581 0.31127226
12.768783 4.1325326 0.31127226
12.738039 4.1165586 0.31127226
12.709044 4.0975952 0.31127226
12.682088 4.0758314 0.31127226
12.657438 4.0514855 0.31127226
12.635343 4.0248008 0.31127226
12.616021 3.996043 0.31127226
12.599668 3.9655001 0.31127226
12.586445 3.9334772 0.31127226
12.576485 3.9002941 0.31127226
12.569887 3.8662825 0.31127226
12.566718 3.8317821 0.31127226
12.56701 3.7971377 0.31127226
12.570758 3.7626956 0.31127226
12.577927 3.7287996 0.31127226
12.588443 3.6957886 0.31127226
12.602202 3.6639926 0.31127226
12.619067 3.633729 0.31127226
12.638869 3.6053002 0.31127226
12.66141 3.5789902 0.31127226
12.686465 3.5550623 0.31127226
12.713784 3.5337551 0.31127226
12.743094 3.5152817 0.31127226
12.774101 3.4998267 0.31127226
12.806497 3.4875445 0.31127226
12.839956 3.4785578 0.31127226
12.874146 3.4729564 0.31127226
12.908725 3.4707961 0.31127226
12.943346 3.4720988 0.31127226
12.977664 3.4768515 0.31127226
13.011335 3.4850061 0.31127226
13.044025 3.4964819 0.31127226
13.075406 3.5111637 0.31127226
13.105165 3.5289052 0.31127226
13.133003 3.5495288 0.31127226
13.158644 3.5728288 0.31127226
13.18183 3.5985718 0.31127226
13.202331 3.6265013 0.31127226
13.21994 3.6563377 0.31127226
13.234483 3.687783 0.31127226
13.245814 3.7205234 0.31127226
13.25382 3.7542312 0.31127226
13.258421 3.7885699 0.31127226
13.267494 3.8173699 0.27618927
13.265723 3.8527584 0.27618927
13.260428 3.8877933 0.27618927
13.251662 3.9221244 0.27618927
13.239512 3.955409 0.27618927
13.2241 3.9873142 0.27618927
13.20558 4.0175214 0.27618927
13.184136 4.0457292 0.27618927
13.159985 4.0716548 0.27618927
13.133365 4.0950398 0.27618927
13.104543 4.1156502 0.27618927
13.073808 4.1332808 0.27618927
13.041466 4.1477547 0.27618927
13.007841 4.158927 0.27618927
12.973269 4.166687 0.27618927
12.938094 4.1709571 0.27618927
12.902669 4.1716938 0.27618927
12.867347 4.1688905 0.27618927
12.832481 4.1625748 0.27618927
12.798421 4.1528096 0.27618927
12.765506 4.1396933 0.27618927
12.734064 4.1233559 0.27618927
12.704411 4.1039615 0.27618927
12.676841 4.0817037 0.27618927
12.651631 4.0568047 0.27618927
12.629034 4.0295134 0.27618927
12.609274 4.0001025 0.27618927
12.592548 3.9688656 0.27618927
12.579025 3.936115 0.27618927
12.568839 3.902178 0.27618927
12.562092 3.8673937 0.27618927
12.558851 3.8321095 0.27618927
12.559149 3.7966781 0.27618927
12.562983 3.7614534 0.27618927
12.570313 3.7267873 0.27618927
12.581069 3.6930265 0.27618927
12.59514 3.6605079 0.27618927
12.612389 3.6295567 0.27618927
12.632641 3.600482 0.27618927
12.655694 3.5735745 0.27618927
12.681318 3.5491028 0.27618927
12.709258 3.5273116 0.27618927
12.739233 3.5084183 0.27618927
12.770946 3.4926124 0.27618927
12.804077 3.480051 0.27618927
12.838297 3.47086 0.27618927
12.873263 3.4651315 0.27618927
12.908627 3.4629221 0.27618927
12.944035 3.4642544 0.27618927
12.979133 3.469115 0.27618927
13.01357 3.4774551 0.27618927
13.047002 3.4891915 0.27618927
13.079096 3.5042069 0.27618927
13.10953 3.5223515 0.27618927
13.138001 3.5434437 0.27618927
13.164225 3.5672729 0.27618927
13.187937 3.593601 0.27618927
13.208903 3.6221647 0.27618927
13.226913 3.6526792 0.27618927
13.241787 3.684839 0.27618927
13.253375 3.718323 0.27618927
13.261563 3.7527966 0.27618927
13.266269 3.7879155 0.27618927
13.271827 3.8173699 0.24049535
13.270035 3.8531909 0.24049535
13.264674 3.888654 0.24049535
13.255801 3.9234049 0.24049535
13.243503 3.9570963 0.24049535
13.227902 3.9893916 0.24049535
13.209156 4.019968 0.24049535
13.18745 4.0485201 0.24049535
13.163003 4.0747628 0.24049535
13.136058 4.0984335 0.24049535
13.106884 4.1192961 0.24049535
13.075773 4.1371422 0.24049535
13.043036 4.1517925 0.24049535
13.009 4.1631021 0.24049535
12.974005 4.1709571 0.24049535
12.9384 4.1752787 0.24049535
12.902542 4.1760244 0.24049535
12.866789 4.1731868 0.24049535
12.831497 4.1667938 0.24049535
12.79702 4.1569095 0.24049535
12.763702 4.1436329 0.24049535
12.731876 4.1270962 0.24049535
12.70186 4.1074648 0.24049535
12.673954 4.0849347 0.24049535
12.648437 4.0597315 0.24049535
12.625563 4.0321064 0.24049535
12.605561 4.002336 0.24049535
12.588632 3.9707172 0.24049535
12.574943 3.9375665 0.24049535
12.564632 3.9032147 0.24049535
12.557802 3.868005 0.24049535
12.554522 3.8322897 0.24049535
12.554823 3.7964251 0.24049535
12.558703 3.7607698 0.24049535
12.566124 3.7256801 0.24049535
12.577011 3.6915066 0.24049535
12.591255 3.6585906 0.24049535
12.608714 3.6272612 0.24049535
12.629213 3.597831 0.24049535
12.652549 3.5705945 0.24049535
12.678487 3.5458238 0.24049535
12.706767 3.523766 0.24049535
12.737109 3.504642 0.24049535
12.769209 3.4886427 0.24049535
12.802745 3.4759281 0.24049535
12.837383 3.4666247 0.24049535
12.872777 3.4608259 0.24049535
12.908573 3.4585898 0.24049535
12.944414 3.4599383 0.24049535
12.97994 3.4648583 0.24049535
13.014798 3.4733002 0.24049535
13.048639 3.4851801 0.24049535
13.081126 3.5003791 0.24049535
13.111932 3.5187454 0.24049535
13.140751 3.5400953 0.24049535
13.167295 3.5642159 0.24049535
13.191298 3.5908659 0.24049535
13.21252 3.6197789 0.24049535
13.23075 3.650666 0.24049535
13.245805 3.683219 0.24049535
13.257535 3.7171123 0.24049535
13.265823 3.7520075 0.24049535
13.270586 3.7875555 0.24049535
13.272574 3.8173699 0.20454723
13.270779 3.8532655 0.20454723
13.265408 3.8888025 0.20454723
13.256516 3.9236259 0.20454723
13.244191 3.9573874 0.20454723
13.228559 3.9897499 0.20454723
13.209773 4.02039 0.20454723
13.188023 4.0490017 0.20454723
13.163524 4.0752993 0.20454723
13.136522 4.0990195 0.20454723
13.107287 4.1199255 0.20454723
13.076112 4.1378083 0.20454723
13.043306 4.1524897 0.20454723
13.0092 4.1638227 0.20454723
12.974132 4.1716938 0.20454723
12.938453 4.1760244 0.20454723
12.90252 4.1767721 0.20454723
12.866693 4.1739283 0.20454723
12.831327 4.167522 0.20454723
12.796779 4.1576171 0.20454723
12.763391 4.1443129 0.20454723
12.731499 4.1277413 0.20454723
12.701421 4.1080689 0.20454723
12.673456 4.0854921 0.20454723
12.647885 4.0602365 0.20454723
12.624964 4.0325537 0.20454723
12.60492 4.0027213 0.20454723
12.587955 3.9710369 0.20454723
12.574238 3.9378169 0.20454723
12.563906 3.9033935 0.20454723
12.557062 3.8681107 0.20454723
12.553775 3.8323207 0.20454723
12.554077 3.7963815 0.20454723
12.557965 3.7606521 0.20454723
12.565402 3.7254891 0.20454723
12.576311 3.6912444 0.20454723
12.590585 3.6582599 0.20454723
12.60808 3.6268649 0.20454723
12.628622 3.5973735 0.20454723
12.652006 3.5700803 0.20454723
12.677998 3.5452578 0.20454723
12.706338 3.5231543 0.20454723
12.736743 3.5039904 0.20454723
12.768909 3.4879577 0.20454723
12.802515 3.4752164 0.20454723
12.837226 3.4658937 0.20454723
12.872693 3.460083 0.20454723
12.908564 3.4578421 0.20454723
12.944479 3.4591935 0.20454723
12.98008 3.4641237 0.20454723
13.015011 3.4725833 0.20454723
13.048923 3.484488 0.20454723
13.081476 3.4997187 0.20454723
13.112347 3.5181231 0.20454723
13.141226 3.5395176 0.20454723
13.167825 3.5636883 0.20454723
13.191877 3.5903938 0.20454723
13.213144 3.6193671 0.20454723
13.231412 3.6503186 0.20454723
13.246499 3.6829395 0.20454723
13.258253 3.7169034 0.20454723
13.266559 3.7518711 0.20454723
13.271331 3.7874935 0.20454723
13.26973 3.8173699 0.16870405
13.267947 3.8529816 0.16870405
13.262619 3.8882375 0.16870405
13.253798 3.922785 0.16870405
13.241571 3.9562795 0.16870405
13.226062 3.9883862 0.16870405
13.207425 4.018784 0.16870405
13.185846 4.0471692 0.16870405
13.161542 4.0732584 0.16870405
13.134754 4.0967908 0.16870405
13.105751 4.1175318 0.16870405
13.074821 4.135273 0.16870405
13.042276 4.149838 0.16870405
13.008439 4.1610813 0.16870405
12.973648 4.16889 0.16870405
12.938251 4.1731868 0.16870405
12.902603 4.1739283 0.16870405
12.867059 4.1711073 0.16870405
12.831974 4.1647515 0.16870405
12.797698 4.1549253 0.16870405
12.764575 4.141726 0.16870405
12.732935 4.1252856 0.16870405
12.703094 4.1057692 0.16870405
12.675351 4.0833707 0.16870405
12.649983 4.0583148 0.16870405
12.627243 4.0308514 0.16870405
12.607358 4.001255 0.16870405
12.590528 3.969821 0.16870405
12.576919 3.9368639 0.16870405
12.566669 3.9027128 0.16870405
12.559878 3.8677092 0.16870405
12.556617 3.8322024 0.16870405
12.556917 3.7965477 0.16870405
12.560775 3.7611008 0.16870405
12.568152 3.7262161 0.16870405
12.578975 3.6922421 0.16870405
12.593136 3.6595187 0.16870405
12.610493 3.6283722 0.16870405
12.630873 3.5991142 0.16870405
12.654071 3.572037 0.16870405
12.679857 3.547411 0.16870405
12.707973 3.5254822 0.16870405
12.738137 3.50647 0.16870405
12.770049 3.4905641 0.16870405
12.80339 3.4779236 0.16870405
12.837826 3.4686749 0.16870405
12.873013 3.4629099 0.16870405
12.908599 3.4606867 0.16870405
12.94423 3.4620275 0.16870405
12.979549 3.4669185 0.16870405
13.014204 3.4753113 0.16870405
13.047847 3.4871218 0.16870405
13.080143 3.5022318 0.16870405
13.110769 3.5204909 0.16870405
13.139421 3.5417161 0.16870405
13.165809 3.5656955 0.16870405
13.189671 3.5921898 0.16870405
13.21077 3.6209338 0.16870405
13.228893 3.6516404 0.16870405
13.24386 3.6840031 0.16870405
13.255522 3.7176983 0.16870405
13.263762 3.7523894 0.16870405
13.268497 3.7877297 0.16870405
13.263321 3.8173699 0.13332395
13.261571 3.8523417 0.13332395
13.256338 3.8869641 0.13332395
13.247675 3.920891 0.13332395
13.235668 3.9537838 0.13332395
13.220438 3.9853134 0.13332395
13.202135 4.0151649 0.13332395
13.180944 4.0430403 0.13332395
13.157077 4.0686607 0.13332395
13.13077 4.0917706 0.13332395
13.102288 4.1121387 0.13332395
13.071915 4.1295614 0.13332395
13.039953 4.1438646 0.13332395
13.006724 4.1549058 0.13332395
12.972559 4.1625743 0.13332395
12.937799 4.1667938 0.13332395
12.90279 4.167522 0.13332395
12.867885 4.1647515 0.13332395
12.83343 4.1585102 0.13332395
12.79977 4.1488605 0.13332395
12.767242 4.1358981 0.13332395
12.736171 4.1197534 0.13332395
12.706866 4.1005874 0.13332395
12.679622 4.0785918 0.13332395
12.654709 4.0539856 0.13332395
12.632378 4.0270157 0.13332395
12.61285 3.997951 0.13332395
12.596321 3.967082 0.13332395
12.582957 3.9347169 0.13332395
12.572891 3.9011796 0.13332395
12.566223 3.8668048 0.13332395
12.563021 3.8319359 0.13332395
12.563315 3.7969217 0.13332395
12.567103 3.7621117 0.13332395
12.574348 3.7278538 0.13332395
12.584977 3.6944904 0.13332395
12.598883 3.6623547 0.13332395
12.615929 3.631768 0.13332395
12.635942 3.6030357 0.13332395
12.658724 3.5764449 0.13332395
12.684047 3.5522614 0.13332395
12.711657 3.5307264 0.13332395
12.74128 3.5120559 0.13332395
12.772618 3.4964359 0.13332395
12.80536 3.4840224 0.13332395
12.839176 3.4749398 0.13332395
12.873732 3.4692786 0.13332395
12.908679 3.4670954 0.13332395
12.943669 3.4684119 0.13332395
12.978354 3.4732151 0.13332395
13.012385 3.481457 0.13332395
13.045424 3.4930553 0.13332395
13.077141 3.507894 0.13332395
13.107217 3.5258248 0.13332395
13.135352 3.5466688 0.13332395
13.161266 3.5702174 0.13332395
13.1847 3.5962355 0.13332395
13.20542 3.6244631 0.13332395
13.223218 3.654618 0.13332395
13.237916 3.6863992 0.13332395
13.249368 3.7194891 0.13332395
13.25746 3.753557 0.13332395
13.26211 3.7882624 0.13332395
13.253411 3.8173699 0.098760448
13.251711 3.8513525 0.098760448
13.246627 3.8849955 0.098760448
13.238209 3.9179628 0.098760448
13.226542 3.9499249 0.098760448
13.211741 3.9805627 0.098760448
13.193957 4.0095701 0.098760448
13.173366 4.0366569 0.098760448
13.150173 4.0615525 0.098760448
13.124611 4.0840087 0.098760448
13.096934 4.1038003 0.098760448
13.06742 4.1207304 0.098760448
13.036363 4.1346288 0.098760448
13.004074 4.1453581 0.098760448
12.970875 4.1528096 0.098760448
12.937098 4.1569095 0.098760448
12.90308 4.1576171 0.098760448
12.869162 4.1549253 0.098760448
12.835681 4.1488605 0.098760448
12.802974 4.1394835 0.098760448
12.771366 4.1268878 0.098760448
12.741174 4.1111999 0.098760448
12.712698 4.092576 0.098760448
12.686224 4.0712023 0.098760448
12.662016 4.0472927 0.098760448
12.640316 4.0210853 0.098760448
12.621341 3.9928427 0.098760448
12.60528 3.962847 0.098760448
12.592294 3.9313974 0.098760448
12.582513 3.8988087 0.098760448
12.576034 3.8654063 0.098760448
12.572921 3.8315239 0.098760448
12.573207 3.7975001 0.098760448
12.576888 3.7636747 0.098760448
12.583928 3.730386 0.098760448
12.594256 3.6979663 0.098760448
12.607769 3.6667397 0.098760448
12.624332 3.6370182 0.098760448
12.64378 3.6090984 0.098760448
12.665917 3.5832601 0.098760448
12.690523 3.5597606 0.098760448
12.717353 3.538835 0.098760448
12.746138 3.5206923 0.098760448
12.776589 3.5055141 0.098760448
12.808405 3.4934521 0.098760448
12.841266 3.4846263 0.098760448
12.874843 3.479125 0.098760448
12.908801 3.4770036 0.098760448
12.942802 3.4782829 0.098760448
12.976506 3.4829504 0.098760448
13.009575 3.4909592 0.098760448
13.041679 3.5022292 0.098760448
13.072498 3.5166483 0.098760448
13.101724 3.5340719 0.098760448
13.129063 3.5543261 0.098760448
13.154244 3.5772088 0.098760448
13.177015 3.6024909 0.098760448
13.197148 3.62992 0.098760448
13.214443 3.6592219 0.098760448
13.228725 3.6901042 0.098760448
13.239854 3.7222579 0.098760448
13.247716 3.755362 0.098760448
13.252234 3.7890856 0.098760448
13.240102 3.8173699 0.065358907
13.238467 3.8500237 0.065358907
13.233582 3.8823512 0.065358907
13.225492 3.9140294 0.065358907
13.214282 3.9447417 0.065358907
13.200061 3.9741814 0.065358907
13.182972 4.0020547 0.065358907
13.163185 4.0280819 0.065358907
13.1409 4.0520043 0.065358907
13.116337 4.0735822 0.065358907
13.089743 4.0926003 0.065358907
13.061382 4.1088681 0.065358907
13.03154 4.1222234 0.065358907
13.000513 4.1325326 0.065358907
12.968613 4.1396933 0.065358907
12.936156 4.1436329 0.065358907
12.903468 4.1443129 0.065358907
12.870876 4.141726 0.065358907
12.838705 4.1358981 0.065358907
12.807277 4.1268878 0.065358907
12.776905 4.1147852 0.065358907
12.747893 4.0997105 0.065358907
12.720531 4.0818148 0.065358907
12.695092 4.0612769 0.065358907
12.671831 4.0383019 0.065358907
12.650979 4.0131197 0.065358907
12.632746 3.9859815 0.065358907
12.617313 3.9571583 0.065358907
12.604836 3.9269388 0.065358907
12.595436 3.8956244 0.065358907
12.589211 3.863528 0.065358907
12.58622 3.8309705 0.065358907
12.586494 3.7982771 0.065358907
12.590032 3.7657745 0.065358907
12.596797 3.7337873 0.065358907
12.606721 3.7026353 0.065358907
12.619705 3.6726298 0.065358907
12.63562 3.6440704 0.065358907
12.654307 3.6172426 0.065358907
12.675579 3.5924141 0.065358907
12.699224 3.5698335 0.065358907
12.725004 3.5497262 0.065358907
12.752663 3.5322933 0.065358907
12.781924 3.5177085 0.065358907
12.812495 3.5061181 0.065358907
12.844071 3.4976373 0.065358907
12.876335 3.4923513 0.065358907
12.908966 3.4903128 0.065358907
12.941638 3.4915421 0.065358907
12.974023 3.496027 0.065358907
13.005799 3.5037227 0.065358907
13.036648 3.5145521 0.065358907
13.066262 3.5284071 0.065358907
13.094344 3.5451496 0.065358907
13.120615 3.5646119 0.065358907
13.144812 3.5865996 0.065358907
13.166693 3.610893 0.065358907
13.186038 3.6372497 0.065358907
13.202657 3.665406 0.065358907
13.21638 3.6950805 0.065358907
13.227074 3.7259769 0.065358907
13.234629 3.7577868 0.065358907
13.238971 3.7901917 0.065358907
13.223523 3.8173699 0.033453032
13.221972 3.8483686 0.033453032
13.217334 3.8790576 0.033453032
13.209655 3.9091301 0.033453032
13.199012 3.9382858 0.033453032
13.185512 3.9662335 0.033453032
13.16929 3.9926937 0.033453032
13.150506 4.0174022 0.033453032
13.12935 4.040112 0.033453032
13.106031 4.060596 0.033453032
13.080785 4.07865 0.033453032
13.053863 4.0940933 0.033453032
13.025533 4.1067719 0.033453032
12.996078 4.1165586 0.033453032
12.965795 4.1233559 0.033453032
12.934983 4.1270962 0.033453032
12.903953 4.1277413 0.033453032
12.873013 4.1252856 0.033453032
12.842472 4.1197534 0.033453032
12.812636 4.1111999 0.033453032
12.783804 4.0997105 0.033453032
12.756263 4.0853996 0.033453032
12.730288 4.0684114 0.033453032
12.706138 4.0489144 0.033453032
12.684055 4.0271039 0.033453032
12.664261 4.0031981 0.033453032
12.646952 3.9774354 0.033453032
12.632301 3.9500732 0.033453032
12.620456 3.9213853 0.033453032
12.611533 3.8916581 0.033453032
12.605622 3.8611884 0.033453032
12.602784 3.8302813 0.033453032
12.603045 3.7992449 0.033453032
12.606402 3.7683897 0.033453032
12.612824 3.7380238 0.033453032
12.622246 3.7084508 0.033453032
12.634572 3.679966 0.033453032
12.64968 3.652854 0.033453032
12.66742 3.6273861 0.033453032
12.687614 3.6038163 0.033453032
12.71006 3.5823801 0.033453032
12.734533 3.563292 0.033453032
12.760791 3.5467424 0.033453032
12.788568 3.532897 0.033453032
12.817591 3.521894 0.033453032
12.847566 3.5138431 0.033453032
12.878195 3.5088251 0.033453032
12.909172 3.5068898 0.033453032
12.940187 3.5080569 0.033453032
12.970931 3.5123143 0.033453032
13.001097 3.5196199 0.033453032
13.030382 3.5299006 0.033453032
13.058495 3.5430534 0.033453032
13.085154 3.5589471 0.033453032
13.110093 3.5774229 0.033453032
13.133063 3.5982962 0.033453032
13.153835 3.6213584 0.033453032
13.1722 3.646379 0.033453032
13.187976 3.6731083 0.033453032
13.201005 3.7012789 0.033453032
13.211156 3.7306094 0.033453032
13.218328 3.7608068 0.033453032
13.222449 3.7915692 0.033453032
13.203842 3.8173699 0.0033616126
13.20239 3.8464038 0.0033616126
13.198046 3.8751476 0.0033616126
13.190853 3.9033141 0.0033616126
13.180885 3.9306219 0.0033616126
13.168241 3.9567981 0.0033616126
13.153046 3.9815812 0.0033616126
13.135453 4.0047235 0.0033616126
13.115638 4.0259938 0.0033616126
13.093798 4.0451798 0.0033616126
13.070151 4.0620894 0.0033616126
13.044935 4.0765538 0.0033616126
13.018401 4.0884285 0.0033616126
12.990814 4.0975952 0.0033616126
12.962449 4.1039615 0.0033616126
12.933591 4.1074648 0.0033616126
12.904528 4.1080694 0.0033616126
12.875548 4.1057692 0.0033616126
12.846944 4.1005874 0.0033616126
12.818999 4.092576 0.0033616126
12.791994 4.0818148 0.0033616126
12.766198 4.0684114 0.0033616126
12.741869 4.0524993 0.0033616126
12.719251 4.0342383 0.0033616126
12.698568 4.0138102 0.0033616126
12.680028 3.9914196 0.0033616126
12.663816 3.9672899 0.0033616126
12.650094 3.9416621 0.0033616126
12.638999 3.9147925 0.0033616126
12.630642 3.8869493 0.0033616126
12.625107 3.8584111 0.0033616126
12.622447 3.8294628 0.0033616126
12.622692 3.8003936 0.0033616126
12.625837 3.7714942 0.0033616126
12.631852 3.743053 0.0033616126
12.640676 3.7153544 0.0033616126
12.652221 3.6886749 0.0033616126
12.666371 3.6632817 0.0033616126
12.682987 3.6394277 0.0033616126
12.7019 3.617352 0.0033616126
12.722924 3.5972745 0.0033616126
12.745847 3.5793962 0.0033616126
12.770439 3.5638957 0.0033616126
12.796457 3.5509279 0.0033616126
12.823639 3.540622 0.0033616126
12.851714 3.5330815 0.0033616126
12.880402 3.5283816 0.0033616126
12.909415 3.5265689 0.0033616126
12.938465 3.527662 0.0033616126
12.96726 3.5316498 0.0033616126
12.995514 3.5384922 0.0033616126
13.022943 3.5481212 0.0033616126
13.049274 3.5604405 0.0033616126
13.074244 3.5753267 0.0033616126
13.097602 3.5926316 0.0033616126
13.119116 3.6121819 0.0033616126
13.138571 3.6337821 0.0033616126
13.155772 3.657217 0.0033616126
13.170548 3.6822519 0.0033616126
13.182751 3.708637 0.0033616126
13.192259 3.7361085 0.0033616126
13.198977 3.7643919 0.0033616126
13.202837 3.7932045 0.0033616126
13.181256 3.8173699 -0.024614677
13.179915 3.8441489 -0.024614677
13.175909 3.8706603 -0.024614677
13.169275 3.8966393 -0.024614677
13.160082 3.9218261 -0.024614677
13.148419 3.9459696 -0.024614677
13.134404 3.9688277 -0.024614677
13.118178 3.9901729 -0.024614677
13.099901 4.0097914 -0.024614677
13.079758 4.0274868 -0.024614677
13.057948 4.0430832 -0.024614677
13.03469 4.0564246 -0.024614677
13.010217 4.0673771 -0.024614677
12.984772 4.0758314 -0.024614677
12.958611 4.0817037 -0.024614677
12.931993 4.0849347 -0.024614677
12.905187 4.0854921 -0.024614677
12.878458 4.0833707 -0.024614677
12.852076 4.0785918 -0.024614677
12.826301 4.0712023 -0.024614677
12.801394 4.0612769 -0.024614677
12.777601 4.0489144 -0.024614677
12.755161 4.0342383 -0.024614677
12.7343 4.0173955 -0.024614677
12.715223 3.998554 -0.024614677
12.698123 3.9779022 -0.024614677
12.68317 3.9556465 -0.024614677
12.670514 3.932009 -0.024614677
12.66028 3.9072261 -0.024614677
12.652573 3.8815455 -0.024614677
12.647467 3.8552237 -0.024614677
12.645015 3.8285236 -0.024614677
12.64524 3.801712 -0.024614677
12.648141 3.7750571 -0.024614677
12.653688 3.7488246 -0.024614677
12.661827 3.7232773 -0.024614677
12.672476 3.6986699 -0.024614677
12.685528 3.6752486 -0.024614677
12.700852 3.6532476 -0.024614677
12.718297 3.6328862 -0.024614677
12.737688 3.614368 -0.024614677
12.75883 3.5978782 -0.024614677
12.781513 3.5835814 -0.024614677
12.80551 3.5716207 -0.024614677
12.830581 3.5621154 -0.024614677
12.856476 3.5551605 -0.024614677
12.882936 3.5508256 -0.024614677
12.909696 3.5491538 -0.024614677
12.936489 3.5501618 -0.024614677
12.963048 3.5538399 -0.024614677
12.989107 3.5601511 -0.024614677
13.014406 3.5690322 -0.024614677
13.038692 3.5803947 -0.024614677
13.061722 3.5941248 -0.024614677
13.083266 3.6100857 -0.024614677
13.10311 3.6281176 -0.024614677
13.121054 3.6480405 -0.024614677
13.136919 3.6696551 -0.024614677
13.150548 3.6927459 -0.024614677
13.161802 3.7170818 -0.024614677
13.170572 3.7424195 -0.024614677
13.176767 3.7685063 -0.024614677
13.180328 3.7950814 -0.024614677
13.15599 3.8173699 -0.050196305
13.154776 3.8416264 -0.050196305
13.151146 3.8656406 -0.050196305
13.145138 3.8891726 -0.050196305
13.136809 3.9119868 -0.050196305
13.126245 3.933856 -0.050196305
13.113551 3.9545612 -0.050196305
13.098853 3.9738955 -0.050196305
13.082298 3.9916661 -0.050196305
13.064052 4.0076947 -0.050196305
13.044296 4.021822 -0.050196305
13.02323 4.0339065 -0.050196305
13.001061 4.0438275 -0.050196305
12.978013 4.0514855 -0.050196305
12.954316 4.0568047 -0.050196305
12.930206 4.0597315 -0.050196305
12.905925 4.0602365 -0.050196305
12.881714 4.0583148 -0.050196305
12.857816 4.0539856 -0.050196305
12.83447 4.0472927 -0.050196305
12.811908 4.0383019 -0.050196305
12.790357 4.0271039 -0.050196305
12.770031 4.0138102 -0.050196305
12.751134 3.998554 -0.050196305
12.733854 3.9814873 -0.050196305
12.718366 3.9627807 -0.050196305
12.704821 3.9426215 -0.050196305
12.693357 3.9212105 -0.050196305
12.684088 3.8987622 -0.050196305
12.677106 3.8755004 -0.050196305
12.672481 3.8516581 -0.050196305
12.670259 3.8274729 -0.050196305
12.670464 3.8031869 -0.050196305
12.673091 3.7790427 -0.050196305
12.678116 3.7552814 -0.050196305
12.685488 3.7321403 -0.050196305
12.695133 3.709851 -0.050196305
12.706956 3.6886358 -0.050196305
12.720838 3.6687071 -0.050196305
12.736639 3.6502635 -0.050196305
12.754203 3.6334898 -0.050196305
12.773354 3.6185534 -0.050196305
12.7939 3.6056032 -0.050196305
12.815637 3.5947692 -0.050196305
12.838346 3.5861592 -0.050196305
12.861802 3.5798595 -0.050196305
12.885769 3.5759327 -0.050196305
12.910008 3.5744185 -0.050196305
12.934278 3.5753317 -0.050196305
12.958336 3.5786633 -0.050196305
12.98194 3.5843799 -0.050196305
13.004856 3.5924244 -0.050196305
13.026855 3.6027167 -0.050196305
13.047715 3.6151536 -0.050196305
13.06723 3.6296108 -0.050196305
13.085204 3.6459444 -0.050196305
13.101458 3.6639905 -0.050196305
13.115829 3.6835692 -0.050196305
13.128174 3.7044849 -0.050196305
13.138369 3.7265284 -0.050196305
13.146312 3.7494795 -0.050196305
13.151924 3.7731092 -0.050196305
13.155149 3.7971809 -0.050196305
13.128295 3.8173699 -0.073127702
13.127219 3.8388617 -0.073127702
13.124003 3.8601387 -0.073127702
13.11868 3.8809884 -0.073127702
13.111301 3.9012022 -0.073127702
13.101941 3.9205787 -0.073127702
13.090693 3.9389238 -0.073127702
13.077671 3.9560544 -0.073127702
13.063004 3.9717994 -0.073127702
13.046837 3.9860013 -0.073127702
13.029333 3.9985182 -0.073127702
13.010668 4.0092254 -0.073127702
12.991026 4.0180154 -0.073127702
12.970605 4.0248008 -0.073127702
12.949609 4.0295134 -0.073127702
12.928247 4.0321064 -0.073127702
12.906734 4.0325537 -0.073127702
12.885282 4.0308514 -0.073127702
12.864108 4.0270157 -0.073127702
12.843423 4.0210853 -0.073127702
12.823433 4.0131197 -0.073127702
12.804338 4.0031981 -0.073127702
12.786329 3.9914196 -0.073127702
12.769587 3.9779022 -0.073127702
12.754276 3.9627807 -0.073127702
12.740552 3.9462066 -0.073127702
12.728552 3.928345 -0.073127702
12.718394 3.9093745 -0.073127702
12.710181 3.8894849 -0.073127702
12.703996 3.8688745 -0.073127702
12.699898 3.8477497 -0.073127702
12.697929 3.8263214 -0.073127702
12.698111 3.8048036 -0.073127702
12.700438 3.7834113 -0.073127702
12.704891 3.7623584 -0.073127702
12.711423 3.7418551 -0.073127702
12.719969 3.7221062 -0.073127702
12.730444 3.7033093 -0.073127702
12.742743 3.685652 -0.073127702
12.756743 3.6693108 -0.073127702
12.772305 3.654449 -0.073127702
12.789273 3.6412148 -0.073127702
12.807478 3.629741 -0.073127702
12.826736 3.6201417 -0.073127702
12.846857 3.6125133 -0.073127702
12.86764 3.6069314 -0.073127702
12.888875 3.6034524 -0.073127702
12.910352 3.6021106 -0.073127702
12.931855 3.6029198 -0.073127702
12.95317 3.6058717 -0.073127702
12.974084 3.6109366 -0.073127702
12.994389 3.6180642 -0.073127702
13.013879 3.6271832 -0.073127702
13.032362 3.6382027 -0.073127702
13.049653 3.6510122 -0.073127702
13.065578 3.6654837 -0.073127702
13.079979 3.681473 -0.073127702
13.092712 3.6988201 -0.073127702
13.10365 3.7173517 -0.073127702
13.112682 3.7368827 -0.073127702
13.11972 3.7572179 -0.073127702
13.124693 3.7781541 -0.073127702
13.12755 3.7994821 -0.073127702
13.09845 3.8173699 -0.093179688
13.097524 3.8358822 -0.093179688
13.094753 3.8542092 -0.093179688
13.090168 3.8721683 -0.093179688
13.083812 3.88958 -0.093179688
13.075749 3.90627 -0.093179688
13.066062 3.9220719 -0.093179688
13.054844 3.9368277 -0.093179688
13.04221 3.9503896 -0.093179688
13.028285 3.9626226 -0.093179688
13.013207 3.9734044 -0.093179688
12.997129 3.9826269 -0.093179688
12.980211 3.9901984 -0.093179688
12.962622 3.996043 -0.093179688
12.944536 4.0001025 -0.093179688
12.926136 4.002336 -0.093179688
12.907604 4.0027213 -0.093179688
12.889128 4.001255 -0.093179688
12.870889 3.997951 -0.093179688
12.853071 3.9928427 -0.093179688
12.835853 3.9859815 -0.093179688
12.819406 3.9774354 -0.093179688
12.803893 3.9672899 -0.093179688
12.789472 3.9556465 -0.093179688
12.776284 3.9426215 -0.093179688
12.764462 3.928345 -0.093179688
12.754126 3.9129596 -0.093179688
12.745377 3.8966193 -0.093179688
12.738302 3.879487 -0.093179688
12.732974 3.8617342 -0.093179688
12.729445 3.843538 -0.093179688
12.727749 3.8250804 -0.093179688
12.727905 3.8065457 -0.093179688
12.72991 3.7881193 -0.093179688
12.733746 3.769985 -0.093179688
12.739371 3.7523243 -0.093179688
12.746733 3.7353134 -0.093179688
12.755755 3.7191224 -0.093179688
12.76635 3.703913 -0.093179688
12.778409 3.6898375 -0.093179688
12.791814 3.6770358 -0.093179688
12.806429 3.6656365 -0.093179688
12.822109 3.6557534 -0.093179688
12.838698 3.647485 -0.093179688
12.85603 3.640914 -0.093179688
12.873931 3.636106 -0.093179688
12.892222 3.6331093 -0.093179688
12.910722 3.6319537 -0.093179688
12.929244 3.6326506 -0.093179688
12.947604 3.6351931 -0.093179688
12.965618 3.6395559 -0.093179688
12.983108 3.6456954 -0.093179688
12.999896 3.6535504 -0.093179688
13.015817 3.6630418 -0.093179688
13.03071 3.6740756 -0.093179688
13.044428 3.6865408 -0.093179688
13.056832 3.7003133 -0.093179688
13.067801 3.7152555 -0.093179688
13.077221 3.7312181 -0.093179688
13.085002 3.7480412 -0.093179688
13.091063 3.7655573 -0.093179688
13.095347 3.7835908 -0.093179688
13.097809 3.8019619 -0.093179688
13.066751 3.8173699 -0.11015199
13.065984 3.8327177 -0.11015199
13.063687 3.8479118 -0.11015199
13.059885 3.8628011 -0.11015199
13.054616 3.8772361 -0.11015199
13.047932 3.8910732 -0.11015199
13.0399 3.9041739 -0.11015199
13.030601 3.9164071 -0.11015199
13.020125 3.9276509 -0.11015199
13.008581 3.9377928 -0.11015199
12.996081 3.9467313 -0.11015199
12.982752 3.9543774 -0.11015199
12.968725 3.9606545 -0.11015199
12.954143 3.9655001 -0.11015199
12.939149 3.9688656 -0.11015199
12.923894 3.9707172 -0.11015199
12.90853 3.9710369 -0.11015199
12.893211 3.969821 -0.11015199
12.878091 3.9670818 -0.11015199
12.863319 3.962847 -0.11015199
12.849044 3.9571583 -0.11015199
12.835408 3.9500732 -0.11015199
12.822548 3.9416621 -0.11015199
12.810591 3.932009 -0.11015199
12.799658 3.9212105 -0.11015199
12.789858 3.9093745 -0.11015199
12.781287 3.8966193 -0.11015199
12.774034 3.8830721 -0.11015199
12.768169 3.8688686 -0.11015199
12.763751 3.8541503 -0.11015199
12.760825 3.8390648 -0.11015199
12.759419 3.8237624 -0.11015199
12.759549 3.8083961 -0.11015199
12.761211 3.7931194 -0.11015199
12.764391 3.7780852 -0.11015199
12.769055 3.7634432 -0.11015199
12.775158 3.7493403 -0.11015199
12.782639 3.7359171 -0.11015199
12.791422 3.7233076 -0.11015199
12.801419 3.7116382 -0.11015199
12.812532 3.701025 -0.11015199
12.82465 3.6915743 -0.11015199
12.83765 3.6833806 -0.11015199
12.851403 3.6765256 -0.11015199
12.865772 3.671078 -0.11015199
12.880612 3.6670918 -0.11015199
12.895778 3.6646075 -0.11015199
12.911115 3.6636493 -0.11015199
12.92647 3.664227 -0.11015199
12.941691 3.6663351 -0.11015199
12.956627 3.6699522 -0.11015199
12.971127 3.6750422 -0.11015199
12.985045 3.6815541 -0.11015199
12.998244 3.6894233 -0.11015199
13.010592 3.6985707 -0.11015199
13.021964 3.7089052 -0.11015199
13.032248 3.7203233 -0.11015199
13.041342 3.7327113 -0.11015199
13.049152 3.745945 -0.11015199
13.055602 3.7598925 -0.11015199
13.060628 3.7744143 -0.11015199
13.064179 3.7893651 -0.11015199
13.06622 3.8045959 -0.11015199
13.033518 3.8173699 -0.12387495
13.032915 3.8293996 -0.12387495
13.031116 3.8413093 -0.12387495
13.028135 3.8529797 -0.12387495
13.024006 3.8642943 -0.12387495
13.018766 3.87514 -0.12387495
13.012471 3.8854084 -0.12387495
13.005181 3.8949971 -0.12387495
12.996971 3.9038103 -0.12387495
12.987922 3.9117596 -0.12387495
12.978125 3.9187658 -0.12387495
12.967677 3.9247589 -0.12387495
12.956682 3.9296792 -0.12387495
12.945252 3.9334772 -0.12387495
12.9335 3.936115 -0.12387495
12.921543 3.9375665 -0.12387495
12.909501 3.9378169 -0.12387495
12.897493 3.9368639 -0.12387495
12.885642 3.9347169 -0.12387495
12.874063 3.9313974 -0.12387495
12.862874 3.9269388 -0.12387495
12.852186 3.9213853 -0.12387495
12.842106 3.9147925 -0.12387495
12.832734 3.9072261 -0.12387495
12.824164 3.8987622 -0.12387495
12.816483 3.8894849 -0.12387495
12.809766 3.879487 -0.12387495
12.80408 3.8688686 -0.12387495
12.799483 3.8577356 -0.12387495
12.796021 3.8461993 -0.12387495
12.793727 3.8343747 -0.12387495
12.792625 3.8223805 -0.12387495
12.792727 3.8103361 -0.12387495
12.794029 3.798362 -0.12387495
12.796521 3.7865777 -0.12387495
12.800178 3.7751012 -0.12387495
12.804961 3.7640471 -0.12387495
12.810824 3.7535257 -0.12387495
12.817709 3.7436423 -0.12387495
12.825545 3.7344954 -0.12387495
12.834256 3.7261765 -0.12387495
12.843754 3.7187691 -0.12387495
12.853944 3.7123466 -0.12387495
12.864723 3.7069736 -0.12387495
12.875986 3.7027035 -0.12387495
12.887618 3.6995792 -0.12387495
12.899505 3.6976318 -0.12387495
12.911526 3.6968808 -0.12387495
12.923562 3.6973338 -0.12387495
12.935493 3.6989861 -0.12387495
12.9472 3.7018211 -0.12387495
12.958565 3.7058108 -0.12387495
12.969475 3.7109149 -0.12387495
12.97982 3.717083 -0.12387495
12.989498 3.7242529 -0.12387495
12.998412 3.7323532 -0.12387495
13.006474 3.741303 -0.12387495
13.0136 3.751013 -0.12387495
13.019723 3.7613859 -0.12387495
13.024778 3.7723181 -0.12387495
13.028718 3.7837005 -0.12387495
13.031502 3.7954192 -0.12387495
13.033101 3.8073573 -0.12387495
12.99908 3.8173699 -0.13421147
12.99865 3.8259616 -0.13421147
12.997364 3.8344674 -0.13421147
12.995235 3.8428025 -0.13421147
12.992286 3.8508835 -0.13421147
12.988544 3.8586295 -0.13421147
12.984048 3.8659632 -0.13421147
12.978842 3.8728116 -0.13421147
12.972978 3.8791058 -0.13421147
12.966516 3.8847833 -0.13421147
12.959517 3.8897872 -0.13421147
12.952056 3.8940675 -0.13421147
12.944203 3.8975816 -0.13421147
12.93604 3.9002941 -0.13421147
12.927647 3.902178 -0.13421147
12.919106 3.9032147 -0.13421147
12.910506 3.9033935 -0.13421147
12.901931 3.9027128 -0.13421147
12.893466 3.9011796 -0.13421147
12.885197 3.8988087 -0.13421147
12.877206 3.8956244 -0.13421147
12.869572 3.8916581 -0.13421147
12.862372 3.8869493 -0.13421147
12.85568 3.8815455 -0.13421147
12.849559 3.8755004 -0.13421147
12.844072 3.8688745 -0.13421147
12.839275 3.8617342 -0.13421147
12.835215 3.8541503 -0.13421147
12.831931 3.8461993 -0.13421147
12.829458 3.8379598 -0.13421147
12.82782 3.8295147 -0.13421147
12.827033 3.8209484 -0.13421147
12.827106 3.8123462 -0.13421147
12.828036 3.8037944 -0.13421147
12.829816 3.795378 -0.13421147
12.832427 3.7871816 -0.13421147
12.835844 3.7792866 -0.13421147
12.840032 3.7717721 -0.13421147
12.844948 3.7647133 -0.13421147
12.850545 3.7581806 -0.13421147
12.856767 3.7522395 -0.13421147
12.863549 3.7469487 -0.13421147
12.870827 3.742362 -0.13421147
12.878526 3.7385244 -0.13421147
12.88657 3.7354748 -0.13421147
12.894877 3.7332435 -0.13421147
12.903367 3.7318525 -0.13421147
12.911953 3.7313163 -0.13421147
12.920549 3.7316396 -0.13421147
12.92907 3.7328198 -0.13421147
12.937431 3.7348447 -0.13421147
12.945548 3.737694 -0.13421147
12.95334 3.7413394 -0.13421147
12.960729 3.7457447 -0.13421147
12.967641 3.7508655 -0.13421147
12.974008 3.7566507 -0.13421147
12.979764 3.7630427 -0.13421147
12.984855 3.7699776 -0.13421147
12.989227 3.777386 -0.13421147
12.992838 3.7851937 -0.13421147
12.995651 3.793323 -0.13421147
12.99764 3.8016927 -0.13421147
12.998782 3.810219 -0.13421147
12.963781 3.8173699 -0.14105831
12.963528 3.8224378 -0.14105831
12.96277 3.8274548 -0.14105831
12.961514 3.8323712 -0.14105831
12.959774 3.8371377 -0.14105831
12.957567 3.8417068 -0.14105831
12.954915 3.8460326 -0.14105831
12.951844 3.8500719 -0.14105831
12.948385 3.8537846 -0.14105831
12.944573 3.8571334 -0.14105831
12.940446 3.860085 -0.14105831
12.936045 3.8626096 -0.14105831
12.931414 3.8646824 -0.14105831
12.926598 3.8662825 -0.14105831
12.921647 3.8673937 -0.14105831
12.91661 3.868005 -0.14105831
12.911537 3.8681107 -0.14105831
12.906479 3.8677092 -0.14105831
12.901485 3.8668048 -0.14105831
12.896608 3.8654063 -0.14105831
12.891894 3.863528 -0.14105831
12.887392 3.8611884 -0.14105831
12.883145 3.8584111 -0.14105831
12.879197 3.8552237 -0.14105831
12.875587 3.8516581 -0.14105831
12.872352 3.8477497 -0.14105831
12.869521 3.843538 -0.14105831
12.867126 3.8390648 -0.14105831
12.86519 3.8343747 -0.14105831
12.863731 3.8295147 -0.14105831
12.862764 3.8245335 -0.14105831
12.862301 3.8194807 -0.14105831
12.862344 3.8144069 -0.14105831
12.862892 3.8093624 -0.14105831
12.863942 3.8043981 -0.14105831
12.865482 3.7995634 -0.14105831
12.867497 3.7949066 -0.14105831
12.869967 3.7904742 -0.14105831
12.872868 3.7863107 -0.14105831
12.876169 3.7824574 -0.14105831
12.879839 3.7789528 -0.14105831
12.88384 3.7758324 -0.14105831
12.888132 3.7731268 -0.14105831
12.892673 3.7708633 -0.14105831
12.897418 3.7690644 -0.14105831
12.902319 3.7677481 -0.14105831
12.907326 3.766928 -0.14105831
12.91239 3.7666116 -0.14105831
12.91746 3.7668023 -0.14105831
12.922487 3.7674983 -0.14105831
12.927419 3.7686927 -0.14105831
12.932206 3.7703733 -0.14105831
12.936802 3.7725236 -0.14105831
12.94116 3.7751219 -0.14105831
12.945237 3.7781425 -0.14105831
12.948993 3.7815549 -0.14105831
12.952389 3.7853253 -0.14105831
12.955391 3.7894156 -0.14105831
12.957971 3.7937856 -0.14105831
12.9601 3.7983909 -0.14105831
12.96176 3.8031859 -0.14105831
12.962933 3.8081229 -0.14105831
12.963606 3.8131518 -0.14105831
12.927977 3.8173699 -0.14434703
12.927901 3.8188632 -0.14434703
12.927678 3.8203416 -0.14434703
12.927308 3.82179 -0.14434703
12.926796 3.8231945 -0.14434703
12.926146 3.8245409 -0.14434703
12.925364 3.8258154 -0.14434703
12.924459 3.8270056 -0.14434703
12.92344 3.8280995 -0.14434703
12.922317 3.8290863 -0.14434703
12.921101 3.8299561 -0.14434703
12.919804 3.8306999 -0.14434703
12.918439 3.8313107 -0.14434703
12.91702 3.8317821 -0.14434703
12.915562 3.8321095 -0.14434703
12.914077 3.8322897 -0.14434703
12.912582 3.8323207 -0.14434703
12.911092 3.8322024 -0.14434703
12.909621 3.8319359 -0.14434703
12.908184 3.8315239 -0.14434703
12.906795 3.8309705 -0.14434703
12.905468 3.8302813 -0.14434703
12.904217 3.8294628 -0.14434703
12.903053 3.8285236 -0.14434703
12.90199 3.8274729 -0.14434703
12.901036 3.8263214 -0.14434703
12.900203 3.8250804 -0.14434703
12.899497 3.8237624 -0.14434703
12.898926 3.8223805 -0.14434703
12.898497 3.8209484 -0.14434703
12.898211 3.8194807 -0.14434703
12.898075 3.817992 -0.14434703
12.898088 3.8164968 -0.14434703
12.89825 3.8150105 -0.14434703
12.898559 3.8135478 -0.14434703
12.899013 3.8121233 -0.14434703
12.899606 3.810751 -0.14434703
12.900334 3.8094451 -0.14434703
12.901189 3.8082182 -0.14434703
12.902162 3.8070829 -0.14434703
12.903242 3.8060503 -0.14434703
12.904422 3.8051307 -0.14434703
12.905686 3.8043337 -0.14434703
12.907024 3.8036666 -0.14434703
12.908422 3.8031366 -0.14434703
12.909866 3.8027489 -0.14434703
12.911342 3.8025072 -0.14434703
12.912834 3.8024139 -0.14434703
12.914328 3.80247 -0.14434703
12.915809 3.8026752 -0.14434703
12.917262 3.8030272 -0.14434703
12.918673 3.8035223 -0.14434703
12.920027 3.8041558 -0.14434703
12.921311 3.8049216 -0.14434703
12.922512 3.8058114 -0.14434703
12.923619 3.8068171 -0.14434703
12.92462 3.8079278 -0.14434703
12.925504 3.8091333 -0.14434703
12.926264 3.8104208 -0.14434703
12.926891 3.8117778 -0.14434703
12.927381 3.8131907 -0.14434703
12.927726 3.8146453 -0.14434703
12.927925 3.8161271 -0.14434703
23.46567 -12.897892 0.59382629
23.46567 -12.897892 0.69382632
23.46567 -12.897892 0.79382634
23.46567 -12.897892 0.89382637
23.46567 -12.897892 0.99382639
23.46567 -12.897892 1.0938264
23.46567 -12.897892 1.1938264
23.46567 -12.897892 1.2938265
23.46567 -12.797892 0.59382629
23.46567 -12.797892 0.69382632
23.46567 -12.797892 0.79382634
23.46567 -12.797892 0.89382637
23.46567 -12.797892 0.99382639
23.46567 -12.797892 1.0938264
23.46567 -12.797892 1.1938264
23.46567 -12.797892 1.2938265
23.46567 -12.697891 0.59382629
23.46567 -12.697891 0.69382632
23.46567 -12.697891 0.79382634
23.46567 -12.697891 0.89382637
23.46567 -12.697891 0.99382639
23.46567 -12.697891 1.0938264
23.46567 -12.697891 1.1938264
23.46567 -12.697891 1.2938265
23.46567 -12.597891 0.59382629
23.46567 -12.597891 0.69382632
23.46567 -12.597891 0.79382634
23.46567 -12.597891 0.89382637
23.46567 -12.597891 0.99382639
23.46567 -12.597891 1.0938264
23.46567 -12.597891 1.1938264
23.46567 -12.597891 1.2938265
23.46567 -12.49789 0.59382629
23.46567 -12.49789 0.69382632
23.46567 -12.49789 0.79382634
23.46567 -12.49789 0.89382637
23.46567 -12.49789 0.99382639
23.46567 -12.49789 1.0938264
23.46567 -12.49789 1.1938264
23.46567 -12.49789 1.2938265
23.46567 -12.39789 0.59382629
23.46567 -12.39789 0.69382632
23.46567 -12.39789 0.79382634
23.46567 -12.39789 0.89382637
23.46567 -12.39789 0.99382639
23.46567 -12.39789 1.0938264
23.46567 -12.39789 1.1938264
23.46567 -12.39789 1.2938265
23.46567 -12.29789 0.59382629
23.46567 -12.29789 0.69382632
23.46567 -12.29789 0.79382634
23.46567 -12.29789 0.89382637
23.46567 -12.29789 0.99382639
23.46567 -12.29789 1.0938264
23.46567 -12.29789 1.1938264
23.46567 -12.29789 1.2938265
23.46567 -12.197889 0.59382629
23.46567 -12.197889 0.69382632
23.46567 -12.197889 0.79382634
23.46567 -12.197889 0.89382637
23.46567 -12.197889 0.99382639
23.46567 -12.197889 1.0938264
23.46567 -12.197889 1.1938264
23.46567 -12.197889 1.2938265
23.46567 -12.097889 0.59382629
23.46567 -12.097889 0.69382632
23.46567 -12.097889 0.79382634
23.46567 -12.097889 0.89382637
23.46567 -12.097889 0.99382639
23.46567 -12.097889 1.0938264
23.46567 -12.097889 1.1938264
23.46567 -12.097889 1.2938265
23.46567 -11.997889 0.59382629
23.46567 -11.997889 0.69382632
23.46567 -11.997889 0.79382634
23.46567 -11.997889 0.89382637
23.46567 -11.997889 0.99382639
23.46567 -11.997889 1.0938264
23.46567 -11.997889 1.1938264
23.46567 -11.997889 1.2938265
23.46567 -11.897888 0.59382629
23.46567 -11.897888 0.69382632
23.46567 -11.897888 0.79382634
23.46567 -11.897888 0.89382637
23.46567 -11.897888 0.99382639
23.46567 -11.897888 1.0938264
23.46567 -11.897888 1.1938264
23.46567 -11.897888 1.2938265
23.46567 -11.797888 0.59382629
23.46567 -11.797888 0.69382632
23.46567 -11.797888 0.79382634
23.46567 -11.797888 0.89382637
23.46567 -11.797888 0.99382639
23.46567 -11.797888 1.0938264
23.46567 -11.797888 1.1938264
23.46567 -11.797888 1.2938265
23.46567 -11.697887 0.59382629
23.46567 -11.697887 0.69382632
23.46567 -11.697887 0.79382634
23.46567 -11.697887 0.89382637
23.46567 -11.697887 0.99382639
23.46567 -11.697887 1.0938264
23.46567 -11.697887 1.1938264
23.46567 -11.697887 1.2938265
23.46567 -11.597887 0.59382629
23.46567 -11.597887 0.69382632
23.46567 -11.597887 0.79382634
23.46567 -11.597887 0.89382637
23.46567 -11.597887 0.99382639
23.46567 -11.597887 1.0938264
23.46567 -11.597887 1.1938264
23.46567 -11.597887 1.2938265
23.46567 -11.497887 0.59382629
23.46567 -11.497887 0.69382632
23.46567 -11.497887 0.79382634
23.46567 -11.497887 0.89382637
23.46567 -11.497887 0.99382639
23.46567 -11.497887 1.0938264
23.46567 -11.497887 1.1938264
23.46567 -11.497887 1.2938265
23.46567 -11.397886 0.59382629
23.46567 -11.397886 0.69382632
23.46567 -11.397886 0.79382634
23.46567 -11.397886 0.89382637
23.46567 -11.397886 0.99382639
23.46567 -11.397886 1.0938264
23.46567 -11.397886 1.1938264
23.46567 -11.397886 1.2938265
23.46567 -11.297886 0.59382629
23.46567 -11.297886 0.69382632
23.46567 -11.297886 0.79382634
