# .PCD v0.7 - Point Cloud Data file format
VERSION 0.7
FIELDS x y z
SIZE 4 4 4
TYPE F F F
COUNT 1 1 1
WIDTH 1533
HEIGHT 1
VIEWPOINT 0 0 0 1 0 0 0
POINTS 1533
DATA ascii
6.4485974 -0.83121741 1.130821
6.4485974 -0.73121738 -0.76917911
6.4485974 -0.73121738 -0.66917908
6.4485974 -0.73121738 -0.56917906
6.4485974 -0.73121738 -0.46917906
6.4485974 -0.73121738 -0.36917907
6.4485974 -0.73121738 -0.26917908
6.4485974 -0.73121738 -0.16917908
6.4485974 -0.73121738 -0.06917908
6.4485974 -0.73121738 0.030820921
6.4485974 -0.73121738 0.13082093
6.4485974 -0.73121738 0.23082092
6.4485974 -0.73121738 0.33082092
6.4485974 -0.73121738 0.43082091
6.4485974 -0.73121738 0.53082091
6.4485974 -0.73121738 0.63082093
6.4485974 -0.73121738 0.73082095
6.4485974 -0.73121738 0.83082098
6.4485974 -0.73121738 0.930821
6.4485974 -0.73121738 1.030821
6.4485974 -0.73121738 1.130821
6.4485974 -0.63121736 -0.76917911
6.4485974 -0.63121736 -0.66917908
6.4485974 -0.63121736 -0.56917906
6.4485974 -0.63121736 -0.46917906
6.4485974 -0.63121736 -0.36917907
6.4485974 -0.63121736 -0.26917908
6.4485974 -0.63121736 -0.16917908
6.4485974 -0.63121736 -0.06917908
6.4485974 -0.63121736 0.030820921
6.4485974 -0.63121736 0.13082093
6.4485974 -0.63121736 0.23082092
6.4485974 -0.63121736 0.33082092
6.4485974 -0.63121736 0.43082091
6.4485974 -0.63121736 0.53082091
6.4485974 -0.63121736 0.63082093
6.4485974 -0.63121736 0.73082095
6.4485974 -0.63121736 0.83082098
6.4485974 -0.63121736 0.930821
6.4485974 -0.63121736 1.030821
6.4485974 -0.63121736 1.130821
6.4485974 -0.53121734 -0.76917911
6.4485974 -0.53121734 -0.66917908
6.4485974 -0.53121734 -0.56917906
6.4485974 -0.53121734 -0.46917906
6.4485974 -0.53121734 -0.36917907
6.4485974 -0.53121734 -0.26917908
6.4485974 -0.53121734 -0.16917908
6.4485974 -0.53121734 -0.06917908
6.4485974 -0.53121734 0.030820921
6.4485974 -0.53121734 0.13082093
6.4485974 -0.53121734 0.23082092
6.4485974 -0.53121734 0.33082092
6.4485974 -0.53121734 0.43082091
6.4485974 -0.53121734 0.53082091
6.4485974 -0.53121734 0.63082093
6.4485974 -0.53121734 0.73082095
6.4485974 -0.53121734 0.83082098
6.4485974 -0.53121734 0.930821
6.4485974 -0.53121734 1.030821
6.4485974 -0.53121734 1.130821
6.5485973 -1.3312175 -0.76917911
6.5485973 -1.3312175 -0.66917908
6.5485973 -1.3312175 -0.56917906
6.5485973 -1.3312175 -0.46917906
6.5485973 -1.3312175 -0.36917907
6.5485973 -1.3312175 -0.26917908
6.5485973 -1.3312175 -0.16917908
6.5485973 -1.3312175 -0.06917908
6.5485973 -1.3312175 0.030820921
6.5485973 -1.3312175 0.13082093
6.5485973 -1.3312175 0.23082092
6.5485973 -1.3312175 0.33082092
6.5485973 -1.3312175 0.43082091
6.5485973 -1.3312175 0.53082091
6.5485973 -1.3312175 0.63082093
6.5485973 -1.3312175 0.73082095
6.5485973 -1.3312175 0.83082098
6.5485973 -1.3312175 0.930821
6.5485973 -1.3312175 1.030821
6.5485973 -1.3312175 1.130821
6.5485973 -1.2312175 -0.76917911
6.5485973 -1.2312175 -0.66917908
6.5485973 -1.2312175 -0.56917906
6.5485973 -1.2312175 -0.46917906
6.5485973 -1.2312175 -0.36917907
6.5485973 -1.2312175 -0.26917908
6.5485973 -1.2312175 -0.16917908
6.5485973 -1.2312175 -0.06917908
6.5485973 -1.2312175 0.030820921
6.5485973 -1.2312175 0.13082093
6.5485973 -1.2312175 0.23082092
6.5485973 -1.2312175 0.33082092
6.5485973 -1.2312175 0.43082091
6.5485973 -1.2312175 0.53082091
6.5485973 -1.2312175 0.63082093
6.5485973 -1.2312175 0.73082095
6.5485973 -1.2312175 0.83082098
6.5485973 -1.2312175 0.930821
6.5485973 -1.2312175 1.030821
6.5485973 -1.2312175 1.130821
6.5485973 -1.1312175 -0.76917911
6.5485973 -1.1312175 -0.66917908
6.5485973 -1.1312175 -0.56917906
6.5485973 -1.1312175 -0.46917906
6.5485973 -1.1312175 -0.36917907
6.5485973 -1.1312175 -0.26917908
6.5485973 -1.1312175 -0.16917908
6.5485973 -1.1312175 -0.06917908
6.5485973 -1.1312175 0.030820921
6.5485973 -1.1312175 0.13082093
6.5485973 -1.1312175 0.23082092
6.5485973 -1.1312175 0.33082092
6.5485973 -1.1312175 0.43082091
6.5485973 -1.1312175 0.53082091
6.5485973 -1.1312175 0.63082093
6.5485973 -1.1312175 0.73082095
6.5485973 -1.1312175 0.83082098
6.5485973 -1.1312175 0.930821
6.5485973 -1.1312175 1.030821
6.5485973 -1.1312175 1.130821
6.5485973 -1.0312175 -0.76917911
6.5485973 -1.0312175 -0.66917908
6.5485973 -1.0312175 -0.56917906
6.5485973 -1.0312175 -0.46917906
6.5485973 -1.0312175 -0.36917907
6.5485973 -1.0312175 -0.26917908
6.5485973 -1.0312175 -0.16917908
6.5485973 -1.0312175 -0.06917908
6.5485973 -1.0312175 0.030820921
6.5485973 -1.0312175 0.13082093
6.5485973 -1.0312175 0.23082092
6.5485973 -1.0312175 0.33082092
6.5485973 -1.0312175 0.43082091
6.5485973 -1.0312175 0.53082091
6.5485973 -1.0312175 0.63082093
6.5485973 -1.0312175 0.73082095
6.5485973 -1.0312175 0.83082098
6.5485973 -1.0312175 0.930821
6.5485973 -1.0312175 1.030821
6.5485973 -1.0312175 1.130821
6.5485973 -0.93121743 -0.76917911
6.5485973 -0.93121743 -0.66917908
6.5485973 -0.93121743 -0.56917906
6.5485973 -0.93121743 -0.46917906
6.5485973 -0.93121743 -0.36917907
6.5485973 -0.93121743 -0.26917908
6.5485973 -0.93121743 -0.16917908
6.5485973 -0.93121743 -0.06917908
6.5485973 -0.93121743 0.030820921
6.5485973 -0.93121743 0.13082093
6.5485973 -0.93121743 0.23082092
6.5485973 -0.93121743 0.33082092
6.5485973 -0.93121743 0.43082091
6.5485973 -0.93121743 0.53082091
6.5485973 -0.93121743 0.63082093
6.5485973 -0.93121743 0.73082095
6.5485973 -0.93121743 0.83082098
6.5485973 -0.93121743 0.930821
6.5485973 -0.93121743 1.030821
6.5485973 -0.93121743 1.130821
6.5485973 -0.83121741 -0.76917911
6.5485973 -0.83121741 -0.66917908
6.5485973 -0.83121741 -0.56917906
6.5485973 -0.83121741 -0.46917906
6.5485973 -0.83121741 -0.36917907
6.5485973 -0.83121741 -0.26917908
6.5485973 -0.83121741 -0.16917908
6.5485973 -0.83121741 -0.06917908
6.5485973 -0.83121741 0.030820921
6.5485973 -0.83121741 0.13082093
6.5485973 -0.83121741 0.23082092
6.5485973 -0.83121741 0.33082092
6.5485973 -0.83121741 0.43082091
6.5485973 -0.83121741 0.53082091
6.5485973 -0.83121741 0.63082093
6.5485973 -0.83121741 0.73082095
6.5485973 -0.83121741 0.83082098
6.5485973 -0.83121741 0.930821
6.5485973 -0.83121741 1.030821
6.5485973 -0.83121741 1.130821
6.5485973 -0.73121738 -0.76917911
6.5485973 -0.73121738 -0.66917908
6.5485973 -0.73121738 -0.56917906
6.5485973 -0.73121738 -0.46917906
6.5485973 -0.73121738 -0.36917907
6.5485973 -0.73121738 -0.26917908
6.5485973 -0.73121738 -0.16917908
6.5485973 -0.73121738 -0.06917908
6.5485973 -0.73121738 0.030820921
6.5485973 -0.73121738 0.13082093
6.5485973 -0.73121738 0.23082092
6.5485973 -0.73121738 0.33082092
6.5485973 -0.73121738 0.43082091
6.5485973 -0.73121738 0.53082091
6.5485973 -0.73121738 0.63082093
6.5485973 -0.73121738 0.73082095
6.5485973 -0.73121738 0.83082098
6.5485973 -0.73121738 0.930821
6.5485973 -0.73121738 1.030821
6.5485973 -0.73121738 1.130821
6.5485973 -0.63121736 -0.76917911
6.5485973 -0.63121736 -0.66917908
6.5485973 -0.63121736 -0.56917906
6.5485973 -0.63121736 -0.46917906
6.5485973 -0.63121736 -0.36917907
6.5485973 -0.63121736 -0.26917908
6.5485973 -0.63121736 -0.16917908
6.5485973 -0.63121736 -0.06917908
6.5485973 -0.63121736 0.030820921
6.5485973 -0.63121736 0.13082093
6.5485973 -0.63121736 0.23082092
6.5485973 -0.63121736 0.33082092
6.5485973 -0.63121736 0.43082091
6.5485973 -0.63121736 0.53082091
6.5485973 -0.63121736 0.63082093
6.5485973 -0.63121736 0.73082095
6.5485973 -0.63121736 0.83082098
6.5485973 -0.63121736 0.930821
6.5485973 -0.63121736 1.030821
6.5485973 -0.63121736 1.130821
6.5485973 -0.53121734 -0.76917911
6.5485973 -0.53121734 -0.66917908
6.5485973 -0.53121734 -0.56917906
6.5485973 -0.53121734 -0.46917906
6.5485973 -0.53121734 -0.36917907
6.5485973 -0.53121734 -0.26917908
6.5485973 -0.53121734 -0.16917908
6.5485973 -0.53121734 -0.06917908
6.5485973 -0.53121734 0.030820921
6.5485973 -0.53121734 0.13082093
6.5485973 -0.53121734 0.23082092
6.5485973 -0.53121734 0.33082092
6.5485973 -0.53121734 0.43082091
6.5485973 -0.53121734 0.53082091
6.5485973 -0.53121734 0.63082093
6.5485973 -0.53121734 0.73082095
6.5485973 -0.53121734 0.83082098
6.5485973 -0.53121734 0.930821
6.5485973 -0.53121734 1.030821
6.5485973 -0.53121734 1.130821
14.492448 -10.311051 1.910171
14.492448 -10.311051 1.910171
14.492448 -10.311051 1.910171
14.492448 -10.311051 1.910171
14.492448 -10.311051 1.910171
14.492448 -10.311051 1.910171
14.492448 -10.311051 1.910171
14.492448 -10.311051 1.910171
14.492448 -10.311051 1.910171
14.492448 -10.311051 1.910171
14.492448 -10.311051 1.910171
14.492448 -10.311051 1.910171
14.492448 -10.311051 1.910171
14.492448 -10.311051 1.910171
14.492448 -10.311051 1.910171
14.492448 -10.311051 1.910171
14.492448 -10.311051 1.910171
14.492448 -10.311051 1.910171
14.492448 -10.311051 1.910171
14.492448 -10.311051 1.910171
14.492448 -10.311051 1.910171
14.492448 -10.311051 1.910171
14.492448 -10.311051 1.910171
14.492448 -10.311051 1.910171
14.492448 -10.311051 1.910171
14.492448 -10.311051 1.910171
14.492448 -10.311051 1.910171
14.492448 -10.311051 1.910171
14.492448 -10.311051 1.910171
14.492448 -10.311051 1.910171
14.492448 -10.311051 1.910171
14.492448 -10.311051 1.910171
14.492448 -10.311051 1.910171
14.492448 -10.311051 1.910171
14.492448 -10.311051 1.910171
14.492448 -10.311051 1.910171
14.492448 -10.311051 1.910171
14.492448 -10.311051 1.910171
14.492448 -10.311051 1.910171
14.492448 -10.311051 1.910171
14.492448 -10.311051 1.910171
14.492448 -10.311051 1.910171
14.492448 -10.311051 1.910171
14.492448 -10.311051 1.910171
14.492448 -10.311051 1.910171
14.492448 -10.311051 1.910171
14.492448 -10.311051 1.910171
14.492448 -10.311051 1.910171
14.492448 -10.311051 1.910171
14.492448 -10.311051 1.910171
14.492448 -10.311051 1.910171
14.492448 -10.311051 1.910171
14.492448 -10.311051 1.910171
14.492448 -10.311051 1.910171
14.492448 -10.311051 1.910171
14.492448 -10.311051 1.910171
14.492448 -10.311051 1.910171
14.492448 -10.311051 1.910171
14.492448 -10.311051 1.910171
14.492448 -10.311051 1.910171
14.492448 -10.311051 1.910171
14.492448 -10.311051 1.910171
14.492448 -10.311051 1.910171
14.578568 -10.311051 1.9058614
14.578138 -10.302454 1.9058614
14.576852 -10.293941 1.9058614
14.574722 -10.285601 1.9058614
14.571771 -10.277514 1.9058614
14.568027 -10.269763 1.9058614
14.563526 -10.262424 1.9058614
14.558317 -10.25557 1.9058614
14.552449 -10.249272 1.9058614
14.545981 -10.24359 1.9058614
14.53898 -10.238584 1.9058614
14.531512 -10.2343 1.9058614
14.523654 -10.230783 1.9058614
14.515485 -10.228069 1.9058614
14.507086 -10.226184 1.9058614
14.49854 -10.225146 1.9058614
14.489933 -10.224967 1.9058614
14.481352 -10.225648 1.9058614
14.472881 -10.227182 1.9058614
14.464606 -10.229555 1.9058614
14.456609 -10.232742 1.9058614
14.44897 -10.236711 1.9058614
14.441766 -10.241423 1.9058614
14.435067 -10.246831 1.9058614
14.428943 -10.25288 1.9058614
14.423452 -10.25951 1.9058614
14.418652 -10.266656 1.9058614
14.414588 -10.274245 1.9058614
14.411303 -10.282202 1.9058614
14.408828 -10.290447 1.9058614
14.407188 -10.298898 1.9058614
14.406402 -10.30747 1.9058614
14.406474 -10.316078 1.9058614
14.407405 -10.324636 1.9058614
14.409186 -10.333058 1.9058614
14.411799 -10.341261 1.9058614
14.415218 -10.349161 1.9058614
14.419409 -10.356681 1.9058614
14.424329 -10.363745 1.9058614
14.42993 -10.370282 1.9058614
14.436155 -10.376227 1.9058614
14.442944 -10.381522 1.9058614
14.450226 -10.386112 1.9058614
14.457931 -10.389953 1.9058614
14.46598 -10.393004 1.9058614
14.474294 -10.395237 1.9058614
14.482789 -10.396629 1.9058614
14.491381 -10.397165 1.9058614
14.499983 -10.396842 1.9058614
14.508511 -10.395661 1.9058614
14.516877 -10.393635 1.9058614
14.525 -10.390783 1.9058614
14.532797 -10.387136 1.9058614
14.540191 -10.382727 1.9058614
14.547108 -10.377603 1.9058614
14.553479 -10.371814 1.9058614
14.55924 -10.365417 1.9058614
14.564334 -10.358478 1.9058614
14.568709 -10.351064 1.9058614
14.572323 -10.34325 1.9058614
14.575138 -10.335115 1.9058614
14.577127 -10.326739 1.9058614
14.578271 -10.318208 1.9058614
14.663829 -10.311051 1.8929756
14.662973 -10.293941 1.8929756
14.660413 -10.277003 1.8929756
14.656175 -10.260405 1.8929756
14.650301 -10.244312 1.8929756
14.642849 -10.228887 1.8929756
14.633895 -10.214282 1.8929756
14.623528 -10.200644 1.8929756
14.611851 -10.18811 1.8929756
14.59898 -10.176804 1.8929756
14.585046 -10.166839 1.8929756
14.570186 -10.158315 1.8929756
14.554549 -10.151318 1.8929756
14.538292 -10.145915 1.8929756
14.521577 -10.142163 1.8929756
14.504571 -10.1401 1.8929756
14.487444 -10.139743 1.8929756
14.470366 -10.141099 1.8929756
14.453509 -10.144152 1.8929756
14.437042 -10.148873 1.8929756
14.421128 -10.155214 1.8929756
14.405927 -10.163114 1.8929756
14.39159 -10.17249 1.8929756
14.378261 -10.183251 1.8929756
14.366073 -10.19529 1.8929756
14.355146 -10.208485 1.8929756
14.345593 -10.222704 1.8929756
14.337507 -10.237806 1.8929756
14.330969 -10.25364 1.8929756
14.326044 -10.270048 1.8929756
14.322782 -10.286866 1.8929756
14.321215 -10.303926 1.8929756
14.321359 -10.321055 1.8929756
14.323213 -10.338086 1.8929756
14.326756 -10.354846 1.8929756
14.331957 -10.371169 1.8929756
14.33876 -10.386891 1.8929756
14.347099 -10.401855 1.8929756
14.356891 -10.415913 1.8929756
14.368036 -10.428922 1.8929756
14.380425 -10.440753 1.8929756
14.393933 -10.451288 1.8929756
14.408426 -10.460423 1.8929756
14.423759 -10.468065 1.8929756
14.439776 -10.474138 1.8929756
14.456321 -10.478581 1.8929756
14.473227 -10.481352 1.8929756
14.490324 -10.48242 1.8929756
14.507443 -10.481775 1.8929756
14.524412 -10.479425 1.8929756
14.541061 -10.475393 1.8929756
14.557226 -10.469719 1.8929756
14.572742 -10.46246 1.8929756
14.587457 -10.453687 1.8929756
14.601222 -10.443489 1.8929756
14.6139 -10.431968 1.8929756
14.625365 -10.419239 1.8929756
14.635502 -10.405429 1.8929756
14.644209 -10.390676 1.8929756
14.651401 -10.375128 1.8929756
14.657003 -10.358938 1.8929756
14.660961 -10.342271 1.8929756
14.663237 -10.325292 1.8929756
14.747377 -10.311051 1.8716424
14.746103 -10.285601 1.8716424
14.742295 -10.260405 1.8716424
14.735991 -10.235715 1.8716424
14.727253 -10.211777 1.8716424
14.716169 -10.188831 1.8716424
14.70285 -10.167108 1.8716424
14.687428 -10.146821 1.8716424
14.670059 -10.128176 1.8716424
14.650914 -10.111359 1.8716424
14.630187 -10.096536 1.8716424
14.608083 -10.083857 1.8716424
14.584824 -10.073447 1.8716424
14.560641 -10.065412 1.8716424
14.535777 -10.059832 1.8716424
14.510481 -10.056761 1.8716424
14.485004 -10.056231 1.8716424
14.459601 -10.058247 1.8716424
14.434527 -10.062789 1.8716424
14.410031 -10.069812 1.8716424
14.38636 -10.079245 1.8716424
14.363748 -10.090994 1.8716424
14.342422 -10.104942 1.8716424
14.322595 -10.120949 1.8716424
14.304464 -10.138856 1.8716424
14.288213 -10.158484 1.8716424
14.274002 -10.179635 1.8716424
14.261973 -10.2021 1.8716424
14.252248 -10.225653 1.8716424
14.244922 -10.250059 1.8716424
14.240069 -10.275076 1.8716424
14.237739 -10.300451 1.8716424
14.237953 -10.325933 1.8716424
14.24071 -10.351265 1.8716424
14.245982 -10.376196 1.8716424
14.253717 -10.400476 1.8716424
14.263838 -10.423862 1.8716424
14.276242 -10.446122 1.8716424
14.290807 -10.467031 1.8716424
14.307386 -10.486382 1.8716424
14.325814 -10.503983 1.8716424
14.345908 -10.519654 1.8716424
14.367466 -10.533241 1.8716424
14.390272 -10.544609 1.8716424
14.4141 -10.553642 1.8716424
14.438709 -10.560252 1.8716424
14.463857 -10.564372 1.8716424
14.489289 -10.565961 1.8716424
14.514753 -10.565003 1.8716424
14.539995 -10.561507 1.8716424
14.564761 -10.55551 1.8716424
14.588805 -10.547069 1.8716424
14.611886 -10.53627 1.8716424
14.633774 -10.523221 1.8716424
14.654249 -10.508052 1.8716424
14.673108 -10.490915 1.8716424
14.690162 -10.47198 1.8716424
14.70524 -10.451438 1.8716424
14.718192 -10.429493 1.8716424
14.728889 -10.406364 1.8716424
14.737224 -10.382283 1.8716424
14.743112 -10.357491 1.8716424
14.746495 -10.332234 1.8716424
14.828378 -10.311051 1.8420746
14.8267 -10.277514 1.8420746
14.821682 -10.244312 1.8420746
14.813375 -10.211777 1.8420746
14.80186 -10.180234 1.8420746
14.787254 -10.149998 1.8420746
14.769703 -10.121371 1.8420746
14.749381 -10.094639 1.8420746
14.726493 -10.070069 1.8420746
14.701265 -10.047908 1.8420746
14.673952 -10.028376 1.8420746
14.644824 -10.011668 1.8420746
14.614175 -9.9979515 1.8420746
14.582309 -9.9873629 1.8420746
14.549545 -9.9800091 1.8420746
14.516211 -9.9759626 1.8420746
14.482638 -9.9752645 1.8420746
14.449165 -9.9779215 1.8420746
14.416123 -9.9839067 1.8420746
14.383845 -9.9931602 1.8420746
14.352652 -10.00559 1.8420746
14.322855 -10.021073 1.8420746
14.294752 -10.039453 1.8420746
14.268625 -10.060547 1.8420746
14.244735 -10.084143 1.8420746
14.223319 -10.110006 1.8420746
14.204593 -10.137878 1.8420746
14.188743 -10.167481 1.8420746
14.175927 -10.198519 1.8420746
14.166274 -10.23068 1.8420746
14.15988 -10.263644 1.8420746
14.156808 -10.297083 1.8420746
14.15709 -10.330661 1.8420746
14.160724 -10.364042 1.8420746
14.167671 -10.396895 1.8420746
14.177863 -10.428889 1.8420746
14.191199 -10.459707 1.8420746
14.207545 -10.489039 1.8420746
14.226738 -10.516593 1.8420746
14.248585 -10.542092 1.8420746
14.272869 -10.565284 1.8420746
14.299347 -10.585936 1.8420746
14.327754 -10.60384 1.8420746
14.357807 -10.618819 1.8420746
14.389205 -10.630723 1.8420746
14.421635 -10.639433 1.8420746
14.454772 -10.644862 1.8420746
14.488285 -10.646955 1.8420746
14.521841 -10.645693 1.8420746
14.555102 -10.641088 1.8420746
14.587738 -10.633183 1.8420746
14.619421 -10.622061 1.8420746
14.649836 -10.607831 1.8420746
14.678679 -10.590635 1.8420746
14.70566 -10.570647 1.8420746
14.730511 -10.548064 1.8420746
14.752983 -10.523113 1.8420746
14.772853 -10.496044 1.8420746
14.78992 -10.467126 1.8420746
14.804015 -10.436649 1.8420746
14.814998 -10.404917 1.8420746
14.822758 -10.372247 1.8420746
14.827216 -10.338964 1.8420746
14.906022 -10.311051 1.8045681
14.903956 -10.269763 1.8045681
14.897779 -10.228887 1.8045681
14.88755 -10.188831 1.8045681
14.873375 -10.149998 1.8045681
14.855393 -10.112773 1.8045681
14.833786 -10.07753 1.8045681
14.808767 -10.04462 1.8045681
14.780588 -10.014371 1.8045681
14.74953 -9.9870872 1.8045681
14.715903 -9.9630404 1.8045681
14.680043 -9.9424706 1.8045681
14.64231 -9.9255838 1.8045681
14.603079 -9.9125481 1.8045681
14.562742 -9.9034939 1.8045681
14.521703 -9.8985128 1.8045681
14.480371 -9.8976526 1.8045681
14.439161 -9.9009237 1.8045681
14.398482 -9.9082928 1.8045681
14.358744 -9.9196854 1.8045681
14.32034 -9.934989 1.8045681
14.283656 -9.9540501 1.8045681
14.249059 -9.9766779 1.8045681
14.216893 -10.002646 1.8045681
14.187481 -10.031697 1.8045681
14.161116 -10.063539 1.8045681
14.138061 -10.097853 1.8045681
14.118546 -10.134297 1.8045681
14.102769 -10.172508 1.8045681
14.090884 -10.212104 1.8045681
14.083012 -10.252687 1.8045681
14.079231 -10.293855 1.8045681
14.079578 -10.335193 1.8045681
14.084051 -10.37629 1.8045681
14.092605 -10.416737 1.8045681
14.105153 -10.456126 1.8045681
14.121571 -10.494066 1.8045681
14.141695 -10.530178 1.8045681
14.165323 -10.5641 1.8045681
14.192221 -10.595493 1.8045681
14.222116 -10.624045 1.8045681
14.254715 -10.649469 1.8045681
14.289688 -10.671513 1.8045681
14.326687 -10.689954 1.8045681
14.365342 -10.70461 1.8045681
14.405268 -10.715333 1.8045681
14.446064 -10.722016 1.8045681
14.487324 -10.724594 1.8045681
14.528634 -10.72304 1.8045681
14.569584 -10.717369 1.8045681
14.609762 -10.707639 1.8045681
14.648769 -10.693945 1.8045681
14.686213 -10.676426 1.8045681
14.721722 -10.655256 1.8045681
14.75494 -10.630648 1.8045681
14.785535 -10.602846 1.8045681
14.813202 -10.572128 1.8045681
14.837664 -10.538802 1.8045681
14.858676 -10.503201 1.8045681
14.876029 -10.465678 1.8045681
14.889549 -10.426612 1.8045681
14.899102 -10.386391 1.8045681
14.904593 -10.345416 1.8045681
14.979534 -10.311051 1.7594975
14.977101 -10.262424 1.7594975
14.969826 -10.214282 1.7594975
14.95778 -10.167108 1.7594975
14.941085 -10.121371 1.7594975
14.919907 -10.07753 1.7594975
14.894458 -10.036021 1.7594975
14.864992 -9.997261 1.7594975
14.831804 -9.9616365 1.7594975
14.795226 -9.9295034 1.7594975
14.755622 -9.9011822 1.7594975
14.713388 -9.876956 1.7594975
14.668947 -9.8570671 1.7594975
14.622743 -9.8417149 1.7594975
14.575236 -9.8310518 1.7594975
14.526903 -9.8251848 1.7594975
14.478225 -9.824172 1.7594975
14.429689 -9.8280249 1.7594975
14.381781 -9.8367033 1.7594975
14.334978 -9.8501215 1.7594975
14.289748 -9.868145 1.7594975
14.246544 -9.8905935 1.7594975
14.205797 -9.917244 1.7594975
14.167913 -9.9478283 1.7594975
14.133273 -9.9820423 1.7594975
14.102221 -10.019544 1.7594975
14.075068 -10.059958 1.7594975
14.052087 -10.10288 1.7594975
14.033504 -10.147882 1.7594975
14.019507 -10.194516 1.7594975
14.010236 -10.242313 1.7594975
14.005782 -10.290797 1.7594975
14.006191 -10.339484 1.7594975
14.011459 -10.387887 1.7594975
14.021533 -10.435521 1.7594975
14.036312 -10.481913 1.7594975
14.055649 -10.526597 1.7594975
14.07935 -10.569127 1.7594975
14.107178 -10.609078 1.7594975
14.138855 -10.646052 1.7594975
14.174067 -10.679679 1.7594975
14.212458 -10.709623 1.7594975
14.253648 -10.735584 1.7594975
14.297223 -10.757303 1.7594975
14.34275 -10.774564 1.7594975
14.389771 -10.787193 1.7594975
14.437819 -10.795065 1.7594975
14.486412 -10.7981 1.7594975
14.535067 -10.79627 1.7594975
14.583295 -10.789591 1.7594975
14.630615 -10.778131 1.7594975
14.676555 -10.762004 1.7594975
14.720655 -10.741371 1.7594975
14.762475 -10.716438 1.7594975
14.801598 -10.687455 1.7594975
14.83763 -10.654712 1.7594975
14.870214 -10.618534 1.7594975
14.899025 -10.579285 1.7594975
14.923772 -10.537354 1.7594975
14.94421 -10.493163 1.7594975
14.960134 -10.447152 1.7594975
14.971385 -10.399782 1.7594975
14.97785 -10.351524 1.7594975
15.04818 -10.311051 1.7073131
15.045403 -10.25557 1.7073131
15.037102 -10.200644 1.7073131
15.023359 -10.146821 1.7073131
15.004311 -10.094639 1.7073131
14.980148 -10.04462 1.7073131
14.951114 -9.997261 1.7073131
14.917495 -9.9530392 1.7073131
14.87963 -9.9123936 1.7073131
14.837896 -9.8757315 1.7073131
14.792711 -9.8434191 1.7073131
14.744526 -9.8157787 1.7073131
14.693822 -9.793087 1.7073131
14.641106 -9.7755709 1.7073131
14.586904 -9.7634058 1.7073131
14.531758 -9.756712 1.7073131
14.47622 -9.7555561 1.7073131
14.420845 -9.7599516 1.7073131
14.366184 -9.7698536 1.7073131
14.312785 -9.785162 1.7073131
14.261182 -9.8057261 1.7073131
14.211888 -9.8313379 1.7073131
14.165399 -9.8617439 1.7073131
14.122177 -9.8966389 1.7073131
14.082655 -9.9356747 1.7073131
14.047227 -9.9784613 1.7073131
14.016248 -10.02457 1.7073131
13.990026 -10.073543 1.7073131
13.968824 -10.124887 1.7073131
13.952855 -10.178093 1.7073131
13.942277 -10.232626 1.7073131
13.937197 -10.287943 1.7073131
13.937663 -10.343492 1.7073131
13.943674 -10.398715 1.7073131
13.955167 -10.453063 1.7073131
13.972029 -10.505992 1.7073131
13.99409 -10.556973 1.7073131
14.021132 -10.605497 1.7073131
14.052881 -10.65108 1.7073131
14.089024 -10.693264 1.7073131
14.129196 -10.73163 1.7073131
14.172999 -10.765794 1.7073131
14.219994 -10.795414 1.7073131
14.26971 -10.820193 1.7073131
14.321652 -10.839887 1.7073131
14.3753 -10.854296 1.7073131
14.43012 -10.863277 1.7073131
14.485562 -10.866741 1.7073131
14.541073 -10.864652 1.7073131
14.596098 -10.857032 1.7073131
14.650086 -10.843957 1.7073131
14.702501 -10.825557 1.7073131
14.752816 -10.802016 1.7073131
14.80053 -10.77357 1.7073131
14.845166 -10.740502 1.7073131
14.886277 -10.703144 1.7073131
14.923453 -10.661868 1.7073131
14.956324 -10.617086 1.7073131
14.984558 -10.569247 1.7073131
15.007876 -10.518828 1.7073131
15.026045 -10.466333 1.7073131
15.038881 -10.412287 1.7073131
15.046258 -10.357229 1.7073131
15.111273 -10.311051 1.6485362
15.108181 -10.249272 1.6485362
15.098937 -10.18811 1.6485362
15.083633 -10.128176 1.6485362
15.062423 -10.070069 1.6485362
15.035518 -10.014371 1.6485362
15.003186 -9.9616365 1.6485362
14.965751 -9.9123936 1.6485362
14.923587 -9.8671341 1.6485362
14.877115 -9.8263092 1.6485362
14.8268 -9.790328 1.6485362
14.773144 -9.7595501 1.6485362
14.716683 -9.7342825 1.6485362
14.657983 -9.7147779 1.6485362
14.597628 -9.701231 1.6485362
14.536222 -9.6937771 1.6485362
14.474379 -9.6924906 1.6485362
14.412716 -9.6973848 1.6485362
14.35185 -9.7084103 1.6485362
14.292388 -9.7254581 1.6485362
14.234926 -9.7483559 1.6485362
14.180037 -9.7768764 1.6485362
14.128269 -9.8107338 1.6485362
14.08014 -9.8495903 1.6485362
14.036131 -9.8930578 1.6485362
13.99668 -9.9407024 1.6485362
13.962184 -9.9920464 1.6485362
13.932986 -10.046578 1.6485362
13.909378 -10.103752 1.6485362
13.891595 -10.162997 1.6485362
13.879816 -10.223722 1.6485362
13.874159 -10.285319 1.6485362
13.874679 -10.347174 1.6485362
13.881371 -10.408668 1.6485362
13.894169 -10.469186 1.6485362
13.912945 -10.528124 1.6485362
13.937511 -10.584893 1.6485362
13.967622 -10.638927 1.6485362
14.002977 -10.689683 1.6485362
14.043222 -10.736657 1.6485362
14.087956 -10.779379 1.6485362
14.136732 -10.817421 1.6485362
14.189061 -10.850404 1.6485362
14.244423 -10.877997 1.6485362
14.302261 -10.899926 1.6485362
14.362001 -10.915971 1.6485362
14.423044 -10.925972 1.6485362
14.48478 -10.929829 1.6485362
14.546593 -10.927503 1.6485362
14.607865 -10.919018 1.6485362
14.667984 -10.904458 1.6485362
14.726348 -10.883969 1.6485362
14.782376 -10.857756 1.6485362
14.835507 -10.82608 1.6485362
14.88521 -10.789258 1.6485362
14.930989 -10.747659 1.6485362
14.972386 -10.701696 1.6485362
15.008987 -10.651831 1.6485362
15.040428 -10.59856 1.6485362
15.066394 -10.542418 1.6485362
15.086624 -10.483963 1.6485362
15.100918 -10.42378 1.6485362
15.109133 -10.362472 1.6485362
15.168182 -10.311051 1.5837543
15.164806 -10.24359 1.5837543
15.154713 -10.176804 1.5837543
15.138001 -10.111359 1.5837543
15.114841 -10.047908 1.5837543
15.085461 -9.9870872 1.5837543
15.050156 -9.9295034 1.5837543
15.009277 -9.8757315 1.5837543
14.963236 -9.8263092 1.5837543
14.912491 -9.7817307 1.5837543
14.857549 -9.7424402 1.5837543
14.798958 -9.7088318 1.5837543
14.737306 -9.681241 1.5837543
14.673205 -9.6599426 1.5837543
14.607301 -9.6451492 1.5837543
14.540247 -9.6370096 1.5837543
14.472716 -9.6356058 1.5837543
14.405383 -9.6409492 1.5837543
14.33892 -9.6529894 1.5837543
14.27399 -9.6716042 1.5837543
14.211243 -9.6966085 1.5837543
14.151306 -9.7277517 1.5837543
14.094777 -9.7647228 1.5837543
14.042222 -9.8071527 1.5837543
13.994165 -9.8546181 1.5837543
13.951088 -9.9066429 1.5837543
13.913419 -9.9627094 1.5837543
13.881536 -10.022256 1.5837543
13.855756 -10.084688 1.5837543
13.836338 -10.149382 1.5837543
13.823476 -10.215692 1.5837543
13.817298 -10.282953 1.5837543
13.817866 -10.350496 1.5837543
13.825174 -10.417645 1.5837543
13.839149 -10.483728 1.5837543
13.859652 -10.548087 1.5837543
13.886477 -10.610077 1.5837543
13.919357 -10.669079 1.5837543
13.957963 -10.724504 1.5837543
14.00191 -10.775798 1.5837543
14.050757 -10.822448 1.5837543
14.104019 -10.863989 1.5837543
14.161161 -10.900004 1.5837543
14.221613 -10.930136 1.5837543
14.284771 -10.954081 1.5837543
14.350004 -10.971601 1.5837543
14.416661 -10.982522 1.5837543
14.484075 -10.986733 1.5837543
14.551573 -10.984194 1.5837543
14.618479 -10.974928 1.5837543
14.684127 -10.95903 1.5837543
14.747859 -10.936657 1.5837543
14.809039 -10.908032 1.5837543
14.867056 -10.873444 1.5837543
14.92133 -10.833236 1.5837543
14.971319 -10.78781 1.5837543
15.016523 -10.737621 1.5837543
15.056491 -10.68317 1.5837543
15.090822 -10.625001 1.5837543
15.119176 -10.563695 1.5837543
15.141267 -10.499865 1.5837543
15.156876 -10.434147 1.5837543
15.165845 -10.3672 1.5837543
15.21834 -10.311051 1.5136145
15.214713 -10.238584 1.5136145
15.20387 -10.166839 1.5136145
15.185919 -10.096536 1.5136145
15.161038 -10.028376 1.5136145
15.129478 -9.9630404 1.5136145
15.091553 -9.9011822 1.5136145
15.047641 -9.8434191 1.5136145
14.998181 -9.790328 1.5136145
14.943669 -9.7424402 1.5136145
14.884649 -9.7002344 1.5136145
14.82171 -9.6641312 1.5136145
14.75548 -9.6344919 1.5136145
14.686623 -9.6116123 1.5136145
14.615826 -9.5957212 1.5136145
14.543796 -9.586978 1.5136145
14.471252 -9.5854692 1.5136145
14.39892 -9.5912104 1.5136145
14.327523 -9.6041431 1.5136145
14.257774 -9.6241398 1.5136145
14.190371 -9.651 1.5136145
14.125984 -9.6844549 1.5136145
14.06526 -9.7241707 1.5136145
14.008803 -9.7697496 1.5136145
13.95718 -9.8207378 1.5136145
13.910904 -9.8766251 1.5136145
13.87044 -9.9368525 1.5136145
13.836189 -10.000819 1.5136145
13.808496 -10.067885 1.5136145
13.787638 -10.137382 1.5136145
13.773821 -10.208613 1.5136145
13.767183 -10.280868 1.5136145
13.767794 -10.353424 1.5136145
13.775644 -10.425557 1.5136145
13.790657 -10.496546 1.5136145
13.812681 -10.565681 1.5136145
13.841497 -10.632273 1.5136145
13.876819 -10.695654 1.5136145
13.91829 -10.755193 1.5136145
13.965499 -10.810294 1.5136145
14.017972 -10.860408 1.5136145
14.075187 -10.905031 1.5136145
14.136571 -10.943721 1.5136145
14.201509 -10.976089 1.5136145
14.269356 -11.001811 1.5136145
14.339432 -11.020632 1.5136145
14.411036 -11.032364 1.5136145
14.483454 -11.036887 1.5136145
14.555961 -11.03416 1.5136145
14.627834 -11.024206 1.5136145
14.698355 -11.007127 1.5136145
14.766817 -10.983093 1.5136145
14.832539 -10.952345 1.5136145
14.894862 -10.915189 1.5136145
14.953165 -10.871996 1.5136145
15.006864 -10.823198 1.5136145
15.055424 -10.769284 1.5136145
15.098358 -10.710792 1.5136145
15.135239 -10.648304 1.5136145
15.165696 -10.582448 1.5136145
15.189427 -10.513879 1.5136145
15.206194 -10.443284 1.5136145
15.21583 -10.371367 1.5136145
15.261245 -10.311051 1.4388177
15.257404 -10.2343 1.4388177
15.24592 -10.158315 1.4388177
15.226908 -10.083857 1.4388177
15.200557 -10.011668 1.4388177
15.16713 -9.9424706 1.4388177
15.126964 -9.876956 1.4388177
15.080456 -9.8157787 1.4388177
15.028073 -9.7595501 1.4388177
14.97034 -9.7088318 1.4388177
14.90783 -9.6641312 1.4388177
14.841171 -9.6258936 1.4388177
14.771028 -9.5945024 1.4388177
14.6981 -9.5702705 1.4388177
14.623117 -9.553441 1.4388177
14.54683 -9.5441809 1.4388177
14.469999 -9.5425825 1.4388177
14.393393 -9.5486631 1.4388177
14.317776 -9.5623608 1.4388177
14.243904 -9.583539 1.4388177
14.172515 -9.6119862 1.4388177
14.104323 -9.647419 1.4388177
14.04001 -9.6894817 1.4388177
13.980217 -9.7377558 1.4388177
13.925542 -9.7917576 1.4388177
13.876532 -9.8509474 1.4388177
13.833674 -9.9147358 1.4388177
13.7974 -9.9824829 1.4388177
13.76807 -10.053514 1.4388177
13.745978 -10.127117 1.4388177
13.731345 -10.202559 1.4388177
13.724316 -10.279083 1.4388177
13.724962 -10.355928 1.4388177
13.733276 -10.432325 1.4388177
13.749176 -10.50751 1.4388177
13.772503 -10.580731 1.4388177
13.803022 -10.651258 1.4388177
13.840431 -10.718387 1.4388177
13.884354 -10.781445 1.4388177
13.934353 -10.839803 1.4388177
13.989928 -10.892878 1.4388177
14.050524 -10.94014 1.4388177
14.115536 -10.981115 1.4388177
14.184314 -11.015396 1.4388177
14.25617 -11.04264 1.4388177
14.330387 -11.062573 1.4388177
14.406224 -11.074998 1.4388177
14.482922 -11.079789 1.4388177
14.559715 -11.0769 1.4388177
14.635837 -11.066359 1.4388177
14.710525 -11.048269 1.4388177
14.783034 -11.022816 1.4388177
14.85264 -10.99025 1.4388177
14.918648 -10.950897 1.4388177
14.980396 -10.905151 1.4388177
15.03727 -10.85347 1.4388177
15.088699 -10.796369 1.4388177
15.134171 -10.734419 1.4388177
15.173231 -10.668238 1.4388177
15.205489 -10.598489 1.4388177
15.230623 -10.525867 1.4388177
15.248381 -10.4511 1.4388177
15.258586 -10.374933 1.4388177
15.296468 -10.311051 1.3601112
15.292451 -10.230783 1.3601112
15.280441 -10.151318 1.3601112
15.260557 -10.073447 1.3601112
15.233 -9.9979515 1.3601112
15.198042 -9.9255838 1.3601112
15.156034 -9.8570671 1.3601112
15.107396 -9.793087 1.3601112
15.052614 -9.7342825 1.3601112
14.992234 -9.681241 1.3601112
14.926862 -9.6344919 1.3601112
14.857148 -9.5945024 1.3601112
14.783791 -9.5616732 1.3601112
14.707522 -9.5363312 1.3601112
14.629105 -9.5187302 1.3601112
14.549322 -9.5090456 1.3601112
14.46897 -9.5073738 1.3601112
14.388854 -9.5137329 1.3601112
14.309772 -9.5280581 1.3601112
14.232516 -9.5502071 1.3601112
14.157857 -9.579958 1.3601112
14.086541 -9.6170139 1.3601112
14.019281 -9.6610041 1.3601112
13.956749 -9.7114897 1.3601112
13.899569 -9.7679653 1.3601112
13.848312 -9.8298674 1.3601112
13.803493 -9.8965778 1.3601112
13.765555 -9.9674292 1.3601112
13.734882 -10.041714 1.3601112
13.711778 -10.11869 1.3601112
13.696474 -10.197587 1.3601112
13.689123 -10.277619 1.3601112
13.689798 -10.357985 1.3601112
13.698494 -10.437881 1.3601112
13.715122 -10.516511 1.3601112
13.739517 -10.593087 1.3601112
13.771436 -10.666845 1.3601112
13.810557 -10.737049 1.3601112
13.856493 -10.802997 1.3601112
13.908783 -10.864028 1.3601112
13.966905 -10.919535 1.3601112
14.030277 -10.968962 1.3601112
14.098268 -11.011815 1.3601112
14.170196 -11.047667 1.3601112
14.245345 -11.076159 1.3601112
14.322962 -11.097005 1.3601112
14.402273 -11.109999 1.3601112
14.482486 -11.115009 1.3601112
14.562797 -11.111988 1.3601112
14.642406 -11.100964 1.3601112
14.720516 -11.082047 1.3601112
14.796348 -11.055426 1.3601112
14.869143 -11.021368 1.3601112
14.938174 -10.980212 1.3601112
15.002752 -10.932371 1.3601112
15.062231 -10.878322 1.3601112
15.116017 -10.818604 1.3601112
15.163572 -10.753816 1.3601112
15.204422 -10.684603 1.3601112
15.238158 -10.611658 1.3601112
15.264443 -10.535709 1.3601112
15.283015 -10.457517 1.3601112
15.293688 -10.37786 1.3601112
15.323658 -10.311051 1.2782816
15.319506 -10.228069 1.2782816
15.307089 -10.145915 1.2782816
15.286533 -10.065412 1.2782816
15.258043 -9.9873629 1.2782816
15.221903 -9.9125481 1.2782816
15.178475 -9.8417149 1.2782816
15.128192 -9.7755709 1.2782816
15.071557 -9.7147779 1.2782816
15.009136 -9.6599426 1.2782816
14.941552 -9.6116123 1.2782816
14.869481 -9.5702705 1.2782816
14.793643 -9.5363312 1.2782816
14.714795 -9.5101318 1.2782816
14.633726 -9.4919357 1.2782816
14.551245 -9.4819241 1.2782816
14.468177 -9.480196 1.2782816
14.385351 -9.4867697 1.2782816
14.303595 -9.5015793 1.2782816
14.223726 -9.524477 1.2782816
14.146543 -9.555234 1.2782816
14.072815 -9.5935431 1.2782816
14.00328 -9.6390209 1.2782816
13.938633 -9.6912136 1.2782816
13.879519 -9.7495995 1.2782816
13.82653 -9.8135948 1.2782816
13.780193 -9.8825617 1.2782816
13.740974 -9.9558086 1.2782816
13.709264 -10.032605 1.2782816
13.685378 -10.112185 1.2782816
13.669557 -10.19375 1.2782816
13.661957 -10.276488 1.2782816
13.662655 -10.359571 1.2782816
13.671644 -10.44217 1.2782816
13.688835 -10.523458 1.2782816
13.714055 -10.602625 1.2782816
13.747053 -10.678878 1.2782816
13.787498 -10.751455 1.2782816
13.834987 -10.819633 1.2782816
13.889045 -10.882729 1.2782816
13.949132 -10.940112 1.2782816
14.014647 -10.991211 1.2782816
14.084937 -11.035513 1.2782816
14.159298 -11.072577 1.2782816
14.236988 -11.102032 1.2782816
14.317231 -11.123584 1.2782816
14.399224 -11.137017 1.2782816
14.482148 -11.142198 1.2782816
14.565176 -11.139073 1.2782816
14.647477 -11.127676 1.2782816
14.728229 -11.108119 1.2782816
14.806624 -11.080599 1.2782816
14.881882 -11.045389 1.2782816
14.953247 -11.002842 1.2782816
15.020009 -10.953382 1.2782816
15.081499 -10.897505 1.2782816
15.137104 -10.835769 1.2782816
15.186268 -10.768788 1.2782816
15.228499 -10.697236 1.2782816
15.263376 -10.621824 1.2782816
15.29055 -10.543307 1.2782816
15.30975 -10.462469 1.2782816
15.320784 -10.380119 1.2782816
15.342543 -10.311051 1.1941462
15.338296 -10.226184 1.1941462
15.325597 -10.142163 1.1941462
15.304574 -10.059832 1.1941462
15.275436 -9.9800091 1.1941462
15.238476 -9.9034939 1.1941462
15.194061 -9.8310518 1.1941462
15.142636 -9.7634048 1.1941462
15.084715 -9.701231 1.1941462
15.020875 -9.6451492 1.1941462
14.951756 -9.5957212 1.1941462
14.878047 -9.553441 1.1941462
14.800486 -9.5187302 1.1941462
14.719847 -9.4919357 1.1941462
14.636936 -9.4733257 1.1941462
14.552581 -9.4630861 1.1941462
14.467626 -9.461319 1.1941462
14.382917 -9.4680424 1.1941462
14.299304 -9.4831886 1.1941462
14.217621 -9.5066071 1.1941462
14.138683 -9.538063 1.1941462
14.063281 -9.5772419 1.1941462
13.992167 -9.6237526 1.1941462
13.92605 -9.6771317 1.1941462
13.865594 -9.7368441 1.1941462
13.8114 -9.8022928 1.1941462
13.764011 -9.8728266 1.1941462
13.723901 -9.9477377 1.1941462
13.69147 -10.026279 1.1941462
13.667042 -10.107666 1.1941462
13.650861 -10.191086 1.1941462
13.643088 -10.275703 1.1941462
13.643803 -10.360674 1.1941462
13.652996 -10.445149 1.1941462
13.670578 -10.528285 1.1941462
13.696371 -10.609249 1.1941462
13.730118 -10.687235 1.1941462
13.771482 -10.761461 1.1941462
13.820049 -10.831187 1.1941462
13.875336 -10.895717 1.1941462
13.936788 -10.954404 1.1941462
14.003792 -11.006663 1.1941462
14.075679 -11.051972 1.1941462
14.15173 -11.089878 1.1941462
14.231184 -11.120003 1.1941462
14.31325 -11.142044 1.1941462
14.397106 -11.155783 1.1941462
14.481915 -11.16108 1.1941462
14.566829 -11.157886 1.1941462
14.650999 -11.14623 1.1941462
14.733585 -11.126228 1.1941462
14.813763 -11.098083 1.1941462
14.890729 -11.062073 1.1941462
14.963717 -11.018559 1.1941462
15.031995 -10.967976 1.1941462
15.094883 -10.91083 1.1941462
15.151751 -10.84769 1.1941462
15.202031 -10.779188 1.1941462
15.245222 -10.70601 1.1941462
15.280891 -10.628884 1.1941462
15.308682 -10.548584 1.1941462
15.328319 -10.46591 1.1941462
15.339602 -10.381688 1.1941462
15.352933 -10.311051 1.1085458
15.348635 -10.225146 1.1085458
15.335781 -10.1401 1.1085458
15.314501 -10.056761 1.1085458
15.285007 -9.9759626 1.1085458
15.247595 -9.8985128 1.1085458
15.202637 -9.8251848 1.1085458
15.150583 -9.756711 1.1085458
15.091953 -9.6937771 1.1085458
15.027334 -9.6370096 1.1085458
14.95737 -9.586978 1.1085458
14.882761 -9.5441809 1.1085458
14.804252 -9.5090456 1.1085458
14.722627 -9.4819241 1.1085458
14.638702 -9.4630861 1.1085458
14.553316 -9.4527216 1.1085458
14.467321 -9.4509325 1.1085458
14.381578 -9.4577379 1.1085458
14.296944 -9.4730701 1.1085458
14.214262 -9.4967737 1.1085458
14.134359 -9.528614 1.1085458
14.058035 -9.5682726 1.1085458
13.986052 -9.6153517 1.1085458
13.919127 -9.669383 1.1085458
13.857931 -9.729825 1.1085458
13.803076 -9.7960749 1.1085458
13.755108 -9.8674698 1.1085458
13.714507 -9.9432964 1.1085458
13.68168 -10.022799 1.1085458
13.656953 -10.105181 1.1085458
13.640574 -10.189619 1.1085458
13.632707 -10.275271 1.1085458
13.63343 -10.36128 1.1085458
13.642735 -10.446789 1.1085458
13.660532 -10.53094 1.1085458
13.68664 -10.612894 1.1085458
13.720799 -10.691833 1.1085458
13.76267 -10.766967 1.1085458
13.811831 -10.837545 1.1085458
13.867793 -10.902864 1.1085458
13.929996 -10.962268 1.1085458
13.997819 -11.015166 1.1085458
14.070584 -11.061028 1.1085458
14.147565 -11.099398 1.1085458
14.227991 -11.12989 1.1085458
14.31106 -11.152202 1.1085458
14.395941 -11.166108 1.1085458
14.481786 -11.171471 1.1085458
14.567738 -11.168237 1.1085458
14.652937 -11.156438 1.1085458
14.736533 -11.136192 1.1085458
14.81769 -11.107702 1.1085458
14.895597 -11.071252 1.1085458
14.969477 -11.027206 1.1085458
15.038589 -10.976006 1.1085458
15.102246 -10.91816 1.1085458
15.159809 -10.854249 1.1085458
15.210705 -10.78491 1.1085458
15.254423 -10.710837 1.1085458
15.290528 -10.63277 1.1085458
15.31866 -10.551487 1.1085458
15.338535 -10.467802 1.1085458
15.349957 -10.382551 1.1085458
15.354727 -10.311051 1.0223358
15.350418 -10.224967 1.0223358
15.337538 -10.139743 1.0223358
15.316214 -10.056231 1.0223358
15.286659 -9.9752645 1.0223358
15.249168 -9.8976526 1.0223358
15.204117 -9.824172 1.0223358
15.151955 -9.7555561 1.0223358
15.093203 -9.6924906 1.0223358
15.028449 -9.6356058 1.0223358
14.958339 -9.5854692 1.0223358
14.883574 -9.5425825 1.0223358
14.804901 -9.5073738 1.0223358
14.723106 -9.480196 1.0223358
14.639007 -9.461319 1.0223358
14.553443 -9.4509325 1.0223358
14.46727 -9.4491405 1.0223358
14.381348 -9.4559603 1.0223358
14.296536 -9.471324 1.0223358
14.213682 -9.4950771 1.0223358
14.133614 -9.5269842 1.0223358
14.05713 -9.5667248 1.0223358
13.984996 -9.6139021 1.0223358
13.917933 -9.668046 1.0223358
13.856609 -9.7286139 1.0223358
13.80164 -9.795002 1.0223358
13.753572 -9.8665457 1.0223358
13.712886 -9.9425306 1.0223358
13.67999 -10.022198 1.0223358
13.655211 -10.104752 1.0223358
13.638799 -10.189366 1.0223358
13.630915 -10.275197 1.0223358
13.631639 -10.361385 1.0223358
13.640965 -10.447071 1.0223358
13.658798 -10.531398 1.0223358
13.684961 -10.613523 1.0223358
13.719192 -10.692626 1.0223358
13.761148 -10.767917 1.0223358
13.810412 -10.838642 1.0223358
13.866491 -10.904097 1.0223358
13.928823 -10.963625 1.0223358
13.996788 -11.016633 1.0223358
14.069705 -11.062592 1.0223358
14.146846 -11.101041 1.0223358
14.22744 -11.131597 1.0223358
14.310681 -11.153955 1.0223358
14.39574 -11.16789 1.0223358
14.481764 -11.173264 1.0223358
14.567894 -11.170023 1.0223358
14.653272 -11.158199 1.0223358
14.737041 -11.137912 1.0223358
14.818368 -11.109363 1.0223358
14.896438 -11.072836 1.0223358
14.970471 -11.028699 1.0223358
15.039728 -10.977391 1.0223358
15.103517 -10.919425 1.0223358
15.1612 -10.855381 1.0223358
15.212201 -10.785898 1.0223358
15.256011 -10.71167 1.0223358
15.292192 -10.63344 1.0223358
15.320381 -10.551988 1.0223358
15.340299 -10.468129 1.0223358
15.351745 -10.382701 1.0223358
15.347904 -10.311051 0.93637735
15.34363 -10.225648 0.93637735
15.330852 -10.141099 0.93637735
15.309696 -10.058247 0.93637735
15.280375 -9.9779215 0.93637735
15.243181 -9.9009237 0.93637735
15.198486 -9.8280249 0.93637735
15.146736 -9.7599516 0.93637735
15.088449 -9.6973848 0.93637735
15.024208 -9.6409492 0.93637735
14.954653 -9.5912104 0.93637735
14.880479 -9.5486631 0.93637735
14.802429 -9.5137329 0.93637735
14.721281 -9.4867697 0.93637735
14.637847 -9.4680424 0.93637735
14.55296 -9.4577379 0.93637735
14.467468 -9.4559603 0.93637735
14.382227 -9.4627256 0.93637735
14.298086 -9.4779673 0.93637735
14.215888 -9.5015335 0.93637735
14.136453 -9.5331879 0.93637735
14.060575 -9.5726137 0.93637735
13.989011 -9.6194181 0.93637735
13.922478 -9.6731339 0.93637735
13.86164 -9.733222 0.93637735
13.807105 -9.7990847 0.93637735
13.759418 -9.8700628 0.93637735
13.719054 -9.945446 0.93637735
13.686419 -10.024484 0.93637735
13.661836 -10.106383 0.93637735
13.645553 -10.190329 0.93637735
13.637732 -10.27548 0.93637735
13.638451 -10.360987 0.93637735
13.647702 -10.445995 0.93637735
13.665395 -10.529655 0.93637735
13.69135 -10.61113 0.93637735
13.72531 -10.689607 0.93637735
13.766935 -10.764302 0.93637735
13.815809 -10.834468 0.93637735
13.871444 -10.899405 0.93637735
13.933284 -10.958462 0.93637735
14.00071 -11.01105 0.93637735
14.07305 -11.056645 0.93637735
14.14958 -11.09479 0.93637735
14.229537 -11.125105 0.93637735
14.312119 -11.147285 0.93637735
14.396504 -11.16111 0.93637735
14.481848 -11.166442 0.93637735
14.567298 -11.163226 0.93637735
14.651999 -11.151497 0.93637735
14.735106 -11.13137 0.93637735
14.815789 -11.103045 0.93637735
14.893241 -11.066809 0.93637735
14.966689 -11.023021 0.93637735
15.035398 -10.972118 0.93637735
15.098681 -10.914612 0.93637735
15.155909 -10.851074 0.93637735
15.206507 -10.782141 0.93637735
15.249969 -10.708501 0.93637735
15.285864 -10.630889 0.93637735
15.31383 -10.550082 0.93637735
15.333591 -10.466887 0.93637735
15.344946 -10.382133 0.93637735
15.332534 -10.311051 0.85152948
15.328337 -10.227182 0.85152948
15.315788 -10.144152 0.85152948
15.295012 -10.062789 0.85152948
15.266218 -9.9839067 0.85152948
15.229692 -9.9082928 0.85152948
15.185801 -9.8367033 0.85152948
15.134981 -9.7698526 0.85152948
15.077742 -9.7084103 0.85152948
15.014653 -9.6529894 0.85152948
14.946348 -9.6041431 0.85152948
14.873507 -9.5623608 0.85152948
14.79686 -9.5280581 0.85152948
14.71717 -9.5015793 0.85152948
14.635235 -9.4831886 0.85152948
14.551873 -9.4730701 0.85152948
14.467917 -9.471324 0.85152948
14.384207 -9.4779673 0.85152948
14.301579 -9.4929352 0.85152948
14.220857 -9.516078 0.85152948
14.142849 -9.547163 0.85152948
14.068334 -9.5858812 0.85152948
13.998056 -9.6318445 0.85152948
13.932718 -9.6845951 0.85152948
13.872973 -9.7436037 0.85152948
13.819418 -9.8082829 0.85152948
13.772588 -9.877986 0.85152948
13.732949 -9.9520149 0.85152948
13.7009 -10.029633 0.85152948
13.67676 -10.110061 0.85152948
13.660769 -10.192498 0.85152948
13.653089 -10.276119 0.85152948
13.653794 -10.36009 0.85152948
13.66288 -10.44357 0.85152948
13.680254 -10.525727 0.85152948
13.705744 -10.605739 0.85152948
13.739093 -10.682806 0.85152948
13.77997 -10.756158 0.85152948
13.827967 -10.825064 0.85152948
13.882602 -10.888833 0.85152948
13.94333 -10.94683 0.85152948
14.009545 -10.998474 0.85152948
14.080585 -11.043249 0.85152948
14.155741 -11.080709 0.85152948
14.234261 -11.110478 0.85152948
14.31536 -11.13226 0.85152948
14.398229 -11.145837 0.85152948
14.482038 -11.151073 0.85152948
14.565952 -11.147916 0.85152948
14.649133 -11.136396 0.85152948
14.730746 -11.116631 0.85152948
14.809979 -11.088816 0.85152948
14.88604 -11.05323 0.85152948
14.958168 -11.010229 0.85152948
15.025642 -10.960241 0.85152948
15.08779 -10.903768 0.85152948
15.143989 -10.841372 0.85152948
15.193677 -10.773677 0.85152948
15.23636 -10.70136 0.85152948
15.271608 -10.625142 0.85152948
15.299072 -10.545787 0.85152948
15.318478 -10.464087 0.85152948
15.329629 -10.380857 0.85152948
15.30877 -10.311051 0.76864004
15.304691 -10.229555 0.76864004
15.292498 -10.148873 0.76864004
15.27231 -10.069812 0.76864004
15.24433 -9.9931602 0.76864004
15.208838 -9.9196854 0.76864004
15.166187 -9.8501215 0.76864004
15.116805 -9.785162 0.76864004
15.061185 -9.7254581 0.76864004
14.999882 -9.6716042 0.76864004
14.933509 -9.6241398 0.76864004
14.862728 -9.583539 0.76864004
14.788248 -9.5502071 0.76864004
14.710813 -9.524477 0.76864004
14.631196 -9.5066071 0.76864004
14.550192 -9.4967737 0.76864004
14.468612 -9.4950771 0.76864004
14.387269 -9.5015335 0.76864004
14.306977 -9.516078 0.76864004
14.228539 -9.5385656 0.76864004
14.152738 -9.5687714 0.76864004
14.080331 -9.6063948 0.76864004
14.012041 -9.6510582 0.76864004
13.948552 -9.7023153 0.76864004
13.890497 -9.759656 0.76864004
13.838457 -9.822505 0.76864004
13.792951 -9.8902359 0.76864004
13.754434 -9.9621716 0.76864004
13.723291 -10.037593 0.76864004
13.699833 -10.115746 0.76864004
13.684295 -10.195851 0.76864004
13.676832 -10.277107 0.76864004
13.677518 -10.358703 0.76864004
13.686346 -10.439822 0.76864004
13.703229 -10.519654 0.76864004
13.727997 -10.597403 0.76864004
13.760404 -10.67229 0.76864004
13.800124 -10.743567 0.76864004
13.846763 -10.810524 0.76864004
13.899853 -10.872489 0.76864004
13.958863 -10.928845 0.76864004
14.023206 -10.979029 0.76864004
14.092236 -11.022537 0.76864004
14.165265 -11.058937 0.76864004
14.241564 -11.087865 0.76864004
14.320369 -11.109031 0.76864004
14.400893 -11.122223 0.76864004
14.482333 -11.127311 0.76864004
14.563873 -11.124243 0.76864004
14.6447 -11.11305 0.76864004
14.724006 -11.093843 0.76864004
14.800998 -11.066815 0.76864004
14.874907 -11.032236 0.76864004
14.944994 -10.990451 0.76864004
15.01056 -10.941877 0.76864004
15.070949 -10.887001 0.76864004
15.125558 -10.82637 0.76864004
15.173841 -10.760591 0.76864004
15.215316 -10.690319 0.76864004
15.249568 -10.616258 0.76864004
15.276256 -10.539147 0.76864004
15.295111 -10.459758 0.76864004
15.305947 -10.378882 0.76864004
15.27685 -10.311051 0.68853712
15.272931 -10.232742 0.68853712
15.261214 -10.155214 0.68853712
15.241816 -10.079245 0.68853712
15.21493 -10.00559 0.68853712
15.180825 -9.934989 0.68853712
15.139843 -9.868145 0.68853712
15.092392 -9.8057261 0.68853712
15.038946 -9.7483559 0.68853712
14.98004 -9.6966085 0.68853712
14.916262 -9.651 0.68853712
14.848249 -9.6119862 0.68853712
14.776682 -9.579958 0.68853712
14.702274 -9.555234 0.68853712
14.625771 -9.538063 0.68853712
14.547935 -9.528614 0.68853712
14.469543 -9.5269842 0.68853712
14.391382 -9.5331879 0.68853712
14.31423 -9.547163 0.68853712
14.238858 -9.5687714 0.68853712
14.166021 -9.5977964 0.68853712
14.096445 -9.6339483 0.68853712
14.030827 -9.6768656 0.68853712
13.96982 -9.726119 0.68853712
13.914035 -9.7812166 0.68853712
13.864029 -9.841608 0.68853712
13.820303 -9.9066906 0.68853712
13.783292 -9.9758139 0.68853712
13.753366 -10.048285 0.68853712
13.730826 -10.123384 0.68853712
13.715896 -10.200356 0.68853712
13.708724 -10.278435 0.68853712
