# .PCD v0.7 - Point Cloud Data file format
VERSION 0.7
FIELDS x y z
SIZE 4 4 4
TYPE F F F
COUNT 1 1 1
WIDTH 1556
HEIGHT 1
VIEWPOINT 0 0 0 1 0 0 0
POINTS 1556
DATA ascii
5.9809799 -1.6080348 1.4944862
5.9809799 -1.6080348 1.5944862
5.9809799 -1.6080348 1.6944863
5.9809799 -1.6080348 1.7944863
5.9809799 -1.6080348 1.8944863
5.9809799 -1.6080348 1.9944863
5.9809799 -1.6080348 2.0944862
5.9809799 -1.6080348 2.1944861
5.9809799 -1.6080348 2.294486
5.9809799 -1.6080348 2.394486
5.9809799 -1.6080348 2.4944859
5.9809799 -1.5080348 0.79448611
5.9809799 -1.5080348 0.89448613
5.9809799 -1.5080348 0.99448615
5.9809799 -1.5080348 1.0944861
5.9809799 -1.5080348 1.1944861
5.9809799 -1.5080348 1.2944862
5.9809799 -1.5080348 1.3944862
5.9809799 -1.5080348 1.4944862
5.9809799 -1.5080348 1.5944862
5.9809799 -1.5080348 1.6944863
5.9809799 -1.5080348 1.7944863
5.9809799 -1.5080348 1.8944863
5.9809799 -1.5080348 1.9944863
5.9809799 -1.5080348 2.0944862
5.9809799 -1.5080348 2.1944861
5.9809799 -1.5080348 2.294486
5.9809799 -1.5080348 2.394486
5.9809799 -1.5080348 2.4944859
5.9809799 -1.4080348 0.79448611
5.9809799 -1.4080348 0.89448613
5.9809799 -1.4080348 0.99448615
5.9809799 -1.4080348 1.0944861
5.9809799 -1.4080348 1.1944861
5.9809799 -1.4080348 1.2944862
5.9809799 -1.4080348 1.3944862
5.9809799 -1.4080348 1.4944862
5.9809799 -1.4080348 1.5944862
5.9809799 -1.4080348 1.6944863
5.9809799 -1.4080348 1.7944863
5.9809799 -1.4080348 1.8944863
5.9809799 -1.4080348 1.9944863
5.9809799 -1.4080348 2.0944862
5.9809799 -1.4080348 2.1944861
5.9809799 -1.4080348 2.294486
5.9809799 -1.4080348 2.394486
5.9809799 -1.4080348 2.4944859
6.0809798 -2.2080348 0.79448611
6.0809798 -2.2080348 0.89448613
6.0809798 -2.2080348 0.99448615
6.0809798 -2.2080348 1.0944861
6.0809798 -2.2080348 1.1944861
6.0809798 -2.2080348 1.2944862
6.0809798 -2.2080348 1.3944862
6.0809798 -2.2080348 1.4944862
6.0809798 -2.2080348 1.5944862
6.0809798 -2.2080348 1.6944863
6.0809798 -2.2080348 1.7944863
6.0809798 -2.2080348 1.8944863
6.0809798 -2.2080348 1.9944863
6.0809798 -2.2080348 2.0944862
6.0809798 -2.2080348 2.1944861
6.0809798 -2.2080348 2.294486
6.0809798 -2.2080348 2.394486
6.0809798 -2.2080348 2.4944859
6.0809798 -2.1080348 0.79448611
6.0809798 -2.1080348 0.89448613
6.0809798 -2.1080348 0.99448615
6.0809798 -2.1080348 1.0944861
6.0809798 -2.1080348 1.1944861
6.0809798 -2.1080348 1.2944862
6.0809798 -2.1080348 1.3944862
6.0809798 -2.1080348 1.4944862
6.0809798 -2.1080348 1.5944862
6.0809798 -2.1080348 1.6944863
6.0809798 -2.1080348 1.7944863
6.0809798 -2.1080348 1.8944863
6.0809798 -2.1080348 1.9944863
6.0809798 -2.1080348 2.0944862
6.0809798 -2.1080348 2.1944861
6.0809798 -2.1080348 2.294486
6.0809798 -2.1080348 2.394486
6.0809798 -2.1080348 2.4944859
6.0809798 -2.0080349 0.79448611
6.0809798 -2.0080349 0.89448613
6.0809798 -2.0080349 0.99448615
6.0809798 -2.0080349 1.0944861
6.0809798 -2.0080349 1.1944861
6.0809798 -2.0080349 1.2944862
6.0809798 -2.0080349 1.3944862
6.0809798 -2.0080349 1.4944862
6.0809798 -2.0080349 1.5944862
6.0809798 -2.0080349 1.6944863
6.0809798 -2.0080349 1.7944863
6.0809798 -2.0080349 1.8944863
6.0809798 -2.0080349 1.9944863
6.0809798 -2.0080349 2.0944862
6.0809798 -2.0080349 2.1944861
6.0809798 -2.0080349 2.294486
6.0809798 -2.0080349 2.394486
6.0809798 -2.0080349 2.4944859
6.0809798 -1.9080349 0.79448611
6.0809798 -1.9080349 0.89448613
6.0809798 -1.9080349 0.99448615
6.0809798 -1.9080349 1.0944861
6.0809798 -1.9080349 1.1944861
6.0809798 -1.9080349 1.2944862
6.0809798 -1.9080349 1.3944862
6.0809798 -1.9080349 1.4944862
6.0809798 -1.9080349 1.5944862
6.0809798 -1.9080349 1.6944863
6.0809798 -1.9080349 1.7944863
6.0809798 -1.9080349 1.8944863
6.0809798 -1.9080349 1.9944863
6.0809798 -1.9080349 2.0944862
6.0809798 -1.9080349 2.1944861
6.0809798 -1.9080349 2.294486
6.0809798 -1.9080349 2.394486
6.0809798 -1.9080349 2.4944859
6.0809798 -1.8080349 0.79448611
6.0809798 -1.8080349 0.89448613
6.0809798 -1.8080349 0.99448615
6.0809798 -1.8080349 1.0944861
6.0809798 -1.8080349 1.1944861
6.0809798 -1.8080349 1.2944862
6.0809798 -1.8080349 1.3944862
6.0809798 -1.8080349 1.4944862
6.0809798 -1.8080349 1.5944862
6.0809798 -1.8080349 1.6944863
6.0809798 -1.8080349 1.7944863
6.0809798 -1.8080349 1.8944863
6.0809798 -1.8080349 1.9944863
6.0809798 -1.8080349 2.0944862
6.0809798 -1.8080349 2.1944861
6.0809798 -1.8080349 2.294486
6.0809798 -1.8080349 2.394486
6.0809798 -1.8080349 2.4944859
6.0809798 -1.7080349 0.79448611
6.0809798 -1.7080349 0.89448613
6.0809798 -1.7080349 0.99448615
6.0809798 -1.7080349 1.0944861
6.0809798 -1.7080349 1.1944861
6.0809798 -1.7080349 1.2944862
6.0809798 -1.7080349 1.3944862
6.0809798 -1.7080349 1.4944862
6.0809798 -1.7080349 1.5944862
6.0809798 -1.7080349 1.6944863
6.0809798 -1.7080349 1.7944863
6.0809798 -1.7080349 1.8944863
6.0809798 -1.7080349 1.9944863
6.0809798 -1.7080349 2.0944862
6.0809798 -1.7080349 2.1944861
6.0809798 -1.7080349 2.294486
6.0809798 -1.7080349 2.394486
6.0809798 -1.7080349 2.4944859
6.0809798 -1.6080348 0.79448611
6.0809798 -1.6080348 0.89448613
6.0809798 -1.6080348 0.99448615
6.0809798 -1.6080348 1.0944861
6.0809798 -1.6080348 1.1944861
6.0809798 -1.6080348 1.2944862
6.0809798 -1.6080348 1.3944862
6.0809798 -1.6080348 1.4944862
6.0809798 -1.6080348 1.5944862
6.0809798 -1.6080348 1.6944863
6.0809798 -1.6080348 1.7944863
6.0809798 -1.6080348 1.8944863
6.0809798 -1.6080348 1.9944863
6.0809798 -1.6080348 2.0944862
6.0809798 -1.6080348 2.1944861
6.0809798 -1.6080348 2.294486
6.0809798 -1.6080348 2.394486
6.0809798 -1.6080348 2.4944859
6.0809798 -1.5080348 0.79448611
6.0809798 -1.5080348 0.89448613
6.0809798 -1.5080348 0.99448615
6.0809798 -1.5080348 1.0944861
6.0809798 -1.5080348 1.1944861
6.0809798 -1.5080348 1.2944862
6.0809798 -1.5080348 1.3944862
6.0809798 -1.5080348 1.4944862
6.0809798 -1.5080348 1.5944862
6.0809798 -1.5080348 1.6944863
6.0809798 -1.5080348 1.7944863
6.0809798 -1.5080348 1.8944863
6.0809798 -1.5080348 1.9944863
6.0809798 -1.5080348 2.0944862
6.0809798 -1.5080348 2.1944861
6.0809798 -1.5080348 2.294486
6.0809798 -1.5080348 2.394486
6.0809798 -1.5080348 2.4944859
6.0809798 -1.4080348 0.79448611
6.0809798 -1.4080348 0.89448613
6.0809798 -1.4080348 0.99448615
6.0809798 -1.4080348 1.0944861
6.0809798 -1.4080348 1.1944861
6.0809798 -1.4080348 1.2944862
6.0809798 -1.4080348 1.3944862
6.0809798 -1.4080348 1.4944862
6.0809798 -1.4080348 1.5944862
6.0809798 -1.4080348 1.6944863
6.0809798 -1.4080348 1.7944863
6.0809798 -1.4080348 1.8944863
6.0809798 -1.4080348 1.9944863
6.0809798 -1.4080348 2.0944862
6.0809798 -1.4080348 2.1944861
6.0809798 -1.4080348 2.294486
6.0809798 -1.4080348 2.394486
6.0809798 -1.4080348 2.4944859
5.2306428 -10.058713 2.3638971
5.2306428 -10.058713 2.3638971
5.2306428 -10.058713 2.3638971
5.2306428 -10.058713 2.3638971
5.2306428 -10.058713 2.3638971
5.2306428 -10.058713 2.3638971
5.2306428 -10.058713 2.3638971
5.2306428 -10.058713 2.3638971
5.2306428 -10.058713 2.3638971
5.2306428 -10.058713 2.3638971
5.2306428 -10.058713 2.3638971
5.2306428 -10.058713 2.3638971
5.2306428 -10.058713 2.3638971
5.2306428 -10.058713 2.3638971
5.2306428 -10.058713 2.3638971
5.2306428 -10.058713 2.3638971
5.2306428 -10.058713 2.3638971
5.2306428 -10.058713 2.3638971
5.2306428 -10.058713 2.3638971
5.2306428 -10.058713 2.3638971
5.2306428 -10.058713 2.3638971
5.2306428 -10.058713 2.3638971
5.2306428 -10.058713 2.3638971
5.2306428 -10.058713 2.3638971
5.2306428 -10.058713 2.3638971
5.2306428 -10.058713 2.3638971
5.2306428 -10.058713 2.3638971
5.2306428 -10.058713 2.3638971
5.2306428 -10.058713 2.3638971
5.2306428 -10.058713 2.3638971
5.2306428 -10.058713 2.3638971
5.2306428 -10.058713 2.3638971
5.2306428 -10.058713 2.3638971
5.2306428 -10.058713 2.3638971
5.2306428 -10.058713 2.3638971
5.2306428 -10.058713 2.3638971
5.2306428 -10.058713 2.3638971
5.2306428 -10.058713 2.3638971
5.2306428 -10.058713 2.3638971
5.2306428 -10.058713 2.3638971
5.2306428 -10.058713 2.3638971
5.2306428 -10.058713 2.3638971
5.2306428 -10.058713 2.3638971
5.2306428 -10.058713 2.3638971
5.2306428 -10.058713 2.3638971
5.2306428 -10.058713 2.3638971
5.2306428 -10.058713 2.3638971
5.2306428 -10.058713 2.3638971
5.2306428 -10.058713 2.3638971
5.2306428 -10.058713 2.3638971
5.2306428 -10.058713 2.3638971
5.2306428 -10.058713 2.3638971
5.2306428 -10.058713 2.3638971
5.2306428 -10.058713 2.3638971
5.2306428 -10.058713 2.3638971
5.2306428 -10.058713 2.3638971
5.2306428 -10.058713 2.3638971
5.2306428 -10.058713 2.3638971
5.2306428 -10.058713 2.3638971
5.2306428 -10.058713 2.3638971
5.2306428 -10.058713 2.3638971
5.2306428 -10.058713 2.3638971
5.2306428 -10.058713 2.3638971
5.3008952 -10.058713 2.3603816
5.3005443 -10.0517 2.3603816
5.2994952 -10.044756 2.3603816
5.2977576 -10.037951 2.3603816
5.2953496 -10.031355 2.3603816
5.2922955 -10.025032 2.3603816
5.2886248 -10.019046 2.3603816
5.2843747 -10.013455 2.3603816
5.2795882 -10.008317 2.3603816
5.2743125 -10.003682 2.3603816
5.2686005 -9.9995975 2.3603816
5.2625089 -9.9961033 2.3603816
5.2560992 -9.9932346 2.3603816
5.2494354 -9.9910202 2.3603816
5.2425833 -9.9894829 2.3603816
5.2356124 -9.988636 2.3603816
5.2285914 -9.9884901 2.3603816
5.221591 -9.9890461 2.3603816
5.2146811 -9.9902973 2.3603816
5.207931 -9.9922333 2.3603816
5.2014074 -9.994832 2.3603816
5.1951761 -9.9980707 2.3603816
5.1892991 -10.001914 2.3603816
5.183835 -10.006326 2.3603816
5.1788392 -10.01126 2.3603816
5.1743603 -10.016668 2.3603816
5.170444 -10.022497 2.3603816
5.1671295 -10.028688 2.3603816
5.1644492 -10.035179 2.3603816
5.1624303 -10.041905 2.3603816
5.1610932 -10.048799 2.3603816
5.1604509 -10.055792 2.3603816
5.1605101 -10.062814 2.3603816
5.1612697 -10.069795 2.3603816
5.1627226 -10.076665 2.3603816
5.164854 -10.083356 2.3603816
5.1676431 -10.089801 2.3603816
5.1710615 -10.095935 2.3603816
5.1750751 -10.101698 2.3603816
5.1796441 -10.10703 2.3603816
5.1847224 -10.11188 2.3603816
5.1902599 -10.116199 2.3603816
5.1962008 -10.119944 2.3603816
5.2024856 -10.123075 2.3603816
5.2090516 -10.125566 2.3603816
5.2158337 -10.127387 2.3603816
5.2227635 -10.128522 2.3603816
5.2297721 -10.12896 2.3603816
5.2367897 -10.128696 2.3603816
5.2437458 -10.127733 2.3603816
5.2505708 -10.12608 2.3603816
5.2571964 -10.123754 2.3603816
5.263557 -10.120778 2.3603816
5.2695889 -10.117182 2.3603816
5.2752314 -10.113002 2.3603816
5.2804284 -10.108279 2.3603816
5.2851281 -10.103062 2.3603816
5.2892833 -10.097401 2.3603816
5.2928529 -10.091352 2.3603816
5.2958007 -10.084979 2.3603816
5.2980971 -10.078342 2.3603816
5.2997198 -10.07151 2.3603816
5.3006525 -10.06455 2.3603816
5.3704462 -10.058713 2.34987
5.3697476 -10.044756 2.34987
5.3676591 -10.030938 2.34987
5.364202 -10.017398 2.34987
5.3594103 -10.004272 2.34987
5.3533316 -9.9916878 2.34987
5.3460274 -9.9797745 2.34987
5.3375702 -9.9686489 2.34987
5.3280444 -9.9584246 2.34987
5.3175459 -9.9492016 2.34987
5.3061786 -9.9410725 2.34987
5.2940569 -9.9341192 2.34987
5.2813015 -9.9284105 2.34987
5.2680402 -9.9240046 2.34987
5.2544045 -9.9209442 2.34987
5.2405319 -9.91926 2.34987
5.2265606 -9.9189692 2.34987
5.2126298 -9.9200754 2.34987
5.1988792 -9.9225664 2.34987
5.1854458 -9.9264174 2.34987
5.1724639 -9.9315901 2.34987
5.1600637 -9.9380331 2.34987
5.1483684 -9.9456825 2.34987
5.1374955 -9.9544611 2.34987
5.127553 -9.9642811 2.34987
5.1186404 -9.9750443 2.34987
5.110847 -9.9866438 2.34987
5.1042504 -9.9989643 2.34987
5.098917 -10.011881 2.34987
5.0948997 -10.025265 2.34987
5.0922389 -10.038984 2.34987
5.0909605 -10.052899 2.34987
5.0910778 -10.066874 2.34987
5.0925899 -10.080766 2.34987
5.0954814 -10.094439 2.34987
5.0997233 -10.107754 2.34987
5.1052732 -10.120579 2.34987
5.1120758 -10.132786 2.34987
5.1200628 -10.144253 2.34987
5.1291552 -10.154864 2.34987
5.1392612 -10.164516 2.34987
5.1502805 -10.173111 2.34987
5.1621027 -10.180562 2.34987
5.1746097 -10.186796 2.34987
5.1876764 -10.19175 2.34987
5.2011728 -10.195374 2.34987
5.2149634 -10.197634 2.34987
5.2289104 -10.198505 2.34987
5.2428751 -10.19798 2.34987
5.2567177 -10.196063 2.34987
5.2702994 -10.192774 2.34987
5.2834849 -10.188145 2.34987
5.2961426 -10.182223 2.34987
5.308146 -10.175067 2.34987
5.3193746 -10.166748 2.34987
5.3297167 -10.15735 2.34987
5.3390689 -10.146966 2.34987
5.3473382 -10.135701 2.34987
5.3544412 -10.123666 2.34987
5.3603072 -10.110983 2.34987
5.3648777 -10.097776 2.34987
5.3681068 -10.08418 2.34987
5.3699627 -10.07033 2.34987
5.4385996 -10.058713 2.3324676
5.437561 -10.037951 2.3324676
5.4344544 -10.017398 2.3324676
5.4293118 -9.9972572 2.3324676
5.422184 -9.9777308 2.3324676
5.4131422 -9.959013 2.3324676
5.402277 -9.9412918 2.3324676
5.3896971 -9.9247437 2.3324676
5.3755279 -9.9095335 2.3324676
5.359911 -9.8958149 2.3324676
5.3430023 -9.8837233 2.3324676
5.3249712 -9.8733807 2.3324676
5.3059974 -9.8648891 2.3324676
5.2862711 -9.8583345 2.3324676
5.2659888 -9.8537817 2.3324676
5.2453532 -9.8512774 2.3324676
5.2245703 -9.8508444 2.3324676
5.2038488 -9.8524895 2.3324676
5.1833944 -9.8561945 2.3324676
5.1634126 -9.8619232 2.3324676
5.1441021 -9.8696184 2.3324676
5.1256566 -9.8792028 2.3324676
5.1082597 -9.8905802 2.3324676
5.0920858 -9.9036388 2.3324676
5.0772967 -9.9182453 2.3324676
5.0640392 -9.9342566 2.3324676
5.0524468 -9.9515104 2.3324676
5.042635 -9.9698362 2.3324676
5.0347013 -9.9890499 2.3324676
5.0287251 -10.008959 2.3324676
5.0247669 -10.029366 2.3324676
5.0228658 -10.050066 2.3324676
5.0230403 -10.070852 2.3324676
5.0252895 -10.091517 2.3324676
5.0295901 -10.111855 2.3324676
5.0359001 -10.13166 2.3324676
5.0441556 -10.150738 2.3324676
5.0542746 -10.168896 2.3324676
5.0661554 -10.185953 2.3324676
5.07968 -10.201738 2.3324676
5.0947127 -10.216095 2.3324676
5.111104 -10.228879 2.3324676
5.1286893 -10.239963 2.3324676
5.1472936 -10.249236 2.3324676
5.1667304 -10.256605 2.3324676
5.1868057 -10.261997 2.3324676
5.2073193 -10.265358 2.3324676
5.228066 -10.266654 2.3324676
5.2488384 -10.265872 2.3324676
5.2694287 -10.263021 2.3324676
5.2896318 -10.258128 2.3324676
5.3092456 -10.251243 2.3324676
5.3280735 -10.242434 2.3324676
5.3459282 -10.231789 2.3324676
5.3626313 -10.219415 2.3324676
5.378015 -10.205436 2.3324676
5.3919268 -10.18999 2.3324676
5.4042268 -10.173232 2.3324676
5.4147925 -10.155331 2.3324676
5.4235182 -10.136464 2.3324676
5.4303169 -10.11682 2.3324676
5.4351201 -10.096596 2.3324676
5.4378805 -10.075993 2.3324676
5.5046759 -10.058713 2.3083479
5.5033064 -10.031355 2.3083479
5.4992132 -10.004272 2.3083479
5.4924364 -9.9777308 2.3083479
5.4830437 -9.9519997 2.3083479
5.4711294 -9.9273348 2.3083479
5.4568119 -9.9039822 2.3083479
5.4402347 -9.8821764 2.3083479
5.4215631 -9.862134 2.3083479
5.4009843 -9.8440552 2.3083479
5.3787031 -9.8281221 2.3083479
5.3549428 -9.8144932 2.3083479
5.3299408 -9.8033037 2.3083479
5.303946 -9.7946663 2.3083479
5.2772193 -9.7886677 2.3083479
5.2500272 -9.785367 2.3083479
5.222641 -9.7847967 2.3083479
5.1953349 -9.7869644 2.3083479
5.1683817 -9.7918463 2.3083479
5.1420507 -9.7993956 2.3083479
5.1166048 -9.809536 2.3083479
5.0922985 -9.8221655 2.3083479
5.0693741 -9.8371582 2.3083479
5.0480614 -9.8543653 2.3083479
5.0285726 -9.8736134 2.3083479
5.0111032 -9.8947115 2.3083479
4.9958272 -9.917449 2.3083479
4.9828973 -9.941597 2.3083479
4.9724431 -9.9669151 2.3083479
4.9645686 -9.9931507 2.3083479
4.9593525 -10.020041 2.3083479
4.9568467 -10.047318 2.3083479
4.957077 -10.074709 2.3083479
4.960041 -10.10194 2.3083479
4.9657083 -10.128739 2.3083479
4.9740229 -10.154839 2.3083479
4.9849014 -10.179977 2.3083479
4.9982352 -10.203905 2.3083479
5.0138912 -10.226382 2.3083479
5.031713 -10.247183 2.3083479
5.0515227 -10.266102 2.3083479
5.073122 -10.282948 2.3083479
5.0962949 -10.297553 2.3083479
5.12081 -10.309772 2.3083479
5.1464229 -10.319483 2.3083479
5.1728773 -10.326589 2.3083479
5.1999087 -10.331017 2.3083479
5.2272472 -10.332725 2.3083479
5.2546196 -10.331695 2.3083479
5.2817526 -10.327937 2.3083479
5.3083749 -10.32149 2.3083479
5.3342204 -10.312417 2.3083479
5.3590312 -10.300809 2.3083479
5.3825588 -10.286782 2.3083479
5.4045691 -10.270476 2.3083479
5.4248409 -10.252055 2.3083479
5.4431729 -10.231702 2.3083479
5.4593811 -10.20962 2.3083479
5.4733038 -10.18603 2.3083479
5.4848022 -10.161168 2.3083479
5.4937606 -10.135283 2.3083479
5.5000906 -10.108632 2.3083479
5.5037279 -10.081483 2.3083479
5.5680137 -10.058713 2.2777522
5.566328 -10.025032 2.2777522
5.5612884 -9.9916878 2.2777522
5.5529451 -9.959013 2.2777522
5.5413818 -9.9273348 2.2777522
5.5267134 -9.8969688 2.2777522
5.5090871 -9.8682194 2.2777522
5.488678 -9.8413725 2.2777522
5.4656911 -9.8166981 2.2777522
5.4403558 -9.7944412 2.2777522
5.4129248 -9.7748251 2.2777522
5.3836727 -9.7580452 2.2777522
5.3528914 -9.7442703 2.2777522
5.320889 -9.7336369 2.2777522
5.2879848 -9.7262506 2.2777522
5.2545075 -9.722187 2.2777522
5.2207918 -9.7214861 2.2777522
5.1871743 -9.7241545 2.2777522
5.1539912 -9.7301655 2.2777522
5.1215744 -9.739459 2.2777522
5.0902472 -9.7519426 2.2777522
5.0603223 -9.7674913 2.2777522
5.0320997 -9.7859497 2.2777522
5.0058608 -9.8071337 2.2777522
4.9818678 -9.8308315 2.2777522
4.9603605 -9.8568058 2.2777522
4.9415536 -9.884798 2.2777522
4.9256353 -9.9145269 2.2777522
4.9127645 -9.9456978 2.2777522
4.90307 -9.9779968 2.2777522
4.8966484 -10.011103 2.2777522
4.8935637 -10.044684 2.2777522
4.8938475 -10.078406 2.2777522
4.8974962 -10.111932 2.2777522
4.9044733 -10.144925 2.2777522
4.9147096 -10.177056 2.2777522
4.9281025 -10.208006 2.2777522
4.9445186 -10.237464 2.2777522
4.9637933 -10.265136 2.2777522
4.985734 -10.290745 2.2777522
5.0101223 -10.314035 2.2777522
5.0367136 -10.334775 2.2777522
5.0652428 -10.352757 2.2777522
5.0954242 -10.367801 2.2777522
5.1269569 -10.379755 2.2777522
5.1595259 -10.388503 2.2777522
5.1928053 -10.393955 2.2777522
5.2264624 -10.396058 2.2777522
5.2601619 -10.39479 2.2777522
5.2935658 -10.390163 2.2777522
5.3263412 -10.382226 2.2777522
5.3581605 -10.371056 2.2777522
5.3887057 -10.356765 2.2777522
5.4176717 -10.339496 2.2777522
5.4447689 -10.319422 2.2777522
5.4697266 -10.296742 2.2777522
5.4922953 -10.271685 2.2777522
5.5122499 -10.244499 2.2777522
5.5293908 -10.215457 2.2777522
5.5435467 -10.184849 2.2777522
5.5545759 -10.152981 2.2777522
5.5623684 -10.120171 2.2777522
5.5668468 -10.086746 2.2777522
5.6279807 -10.058713 2.2409861
5.6259956 -10.019046 2.2409861
5.62006 -9.9797745 2.2409861
5.6102343 -9.9412918 2.2409861
5.5966148 -9.9039822 2.2409861
5.5793395 -9.8682194 2.2409861
5.5585799 -9.8343592 2.2409861
5.5345435 -9.8027411 2.2409861
5.5074706 -9.7736807 2.2409861
5.477632 -9.747468 2.2409861
5.4453254 -9.7243652 2.2409861
5.4108734 -9.7046022 2.2409861
5.3746209 -9.6883783 2.2409861
5.3369303 -9.6758547 2.2409861
5.2981772 -9.6671562 2.2409861
5.2587495 -9.6623707 2.2409861
5.2190404 -9.6615448 2.2409861
5.1794481 -9.6646872 2.2409861
5.1403666 -9.6717663 2.2409861
5.1021876 -9.6827126 2.2409861
5.0652919 -9.6974144 2.2409861
5.0300484 -9.7157278 2.2409861
4.996809 -9.7374668 2.2409861
4.9659061 -9.7624159 2.2409861
4.9376483 -9.7903261 2.2409861
4.9123182 -9.8209171 2.2409861
4.8901687 -9.8538847 2.2409861
4.8714209 -9.8888988 2.2409861
4.8562622 -9.9256096 2.2409861
4.8448448 -9.9636497 2.2409861
4.8372817 -10.002641 2.2409861
4.8336487 -10.042192 2.2409861
4.8339825 -10.081907 2.2409861
4.8382797 -10.121391 2.2409861
4.8464975 -10.160249 2.2409861
4.8585529 -10.198092 2.2409861
4.8743267 -10.234543 2.2409861
4.8936605 -10.269237 2.2409861
4.9163613 -10.301826 2.2409861
4.9422021 -10.331988 2.2409861
4.9709249 -10.359419 2.2409861
5.002243 -10.383845 2.2409861
5.0358429 -10.405023 2.2409861
5.0713897 -10.42274 2.2409861
5.1085272 -10.43682 2.2409861
5.1468849 -10.447123 2.2409861
5.1860795 -10.453544 2.2409861
5.2257195 -10.45602 2.2409861
5.2654085 -10.454527 2.2409861
5.3047504 -10.449079 2.2409861
5.3433514 -10.43973 2.2409861
5.3808265 -10.426575 2.2409861
5.4168015 -10.409743 2.2409861
5.4509158 -10.389404 2.2409861
5.4828296 -10.365762 2.2409861
5.5122232 -10.339051 2.2409861
5.5388036 -10.30954 2.2409861
5.562305 -10.277522 2.2409861
5.5824924 -10.243318 2.2409861
5.5991645 -10.20727 2.2409861
5.6121545 -10.169737 2.2409861
5.6213322 -10.131094 2.2409861
5.6266065 -10.091729 2.2409861
5.6839776 -10.058713 2.1984172
5.6817126 -10.013455 2.1984172
5.6749411 -9.9686489 2.1984172
5.6637297 -9.9247437 2.1984172
5.6481915 -9.8821764 2.1984172
5.6284814 -9.8413725 2.1984172
5.6047959 -9.8027411 2.1984172
5.5773721 -9.7666664 2.1984172
5.546484 -9.733511 2.1984172
5.5124402 -9.7036037 2.1984172
5.4755807 -9.6772451 2.1984172
5.4362736 -9.6546974 2.1984172
5.3949122 -9.6361876 2.1984172
5.3519092 -9.6218987 2.1984172
5.3076949 -9.6119747 2.1984172
5.2627101 -9.606514 2.1984172
5.2174053 -9.6055717 2.1984172
5.1722331 -9.6091566 2.1984172
5.1276441 -9.6172342 2.1984172
5.0840845 -9.6297226 2.1984172
5.0419888 -9.6464968 2.1984172
5.0017786 -9.6673899 2.1984172
4.9638548 -9.692194 2.1984172
4.928597 -9.7206593 2.1984172
4.8963566 -9.7525024 2.1984172
4.8674569 -9.787405 2.1984172
4.8421855 -9.8250179 2.1984172
4.8207955 -9.8649664 2.1984172
4.8035007 -9.9068508 2.1984172
4.7904739 -9.9502525 2.1984172
4.7818451 -9.9947376 2.1984172
4.7777004 -10.039863 2.1984172
4.7780809 -10.085176 2.1984172
4.7829838 -10.130224 2.1984172
4.7923594 -10.174558 2.1984172
4.8061142 -10.217734 2.1984172
4.824111 -10.259322 2.1984172
4.8461695 -10.298905 2.1984172
4.8720694 -10.336089 2.1984172
4.9015522 -10.370501 2.1984172
4.9343228 -10.401797 2.1984172
4.9700546 -10.429666 2.1984172
5.0083899 -10.453828 2.1984172
5.0489459 -10.474042 2.1984172
5.0913172 -10.490107 2.1984172
5.1350808 -10.501861 2.1984172
5.1797991 -10.509188 2.1984172
5.2250257 -10.512012 2.1984172
5.270308 -10.510309 2.1984172
5.3151941 -10.504093 2.1984172
5.3592358 -10.493427 2.1984172
5.4019923 -10.478417 2.1984172
5.4430366 -10.459214 2.1984172
5.4819589 -10.436009 2.1984172
5.5183702 -10.409035 2.1984172
5.5519066 -10.37856 2.1984172
5.582233 -10.344889 2.1984172
5.609046 -10.308359 2.1984172
5.6320786 -10.269335 2.1984172
5.6511002 -10.228206 2.1984172
5.6659207 -10.185383 2.1984172
5.6763921 -10.141295 2.1984172
5.6824098 -10.096382 2.1984172
5.735445 -10.058713 2.1504703
5.732923 -10.008317 2.1504703
5.7253823 -9.9584246 2.1504703
5.7128987 -9.9095335 2.1504703
5.6955962 -9.862134 2.1504703
5.6736484 -9.8166981 2.1504703
5.647274 -9.7736807 2.1504703
5.6167364 -9.733511 2.1504703
5.5823417 -9.6965904 2.1504703
5.5444326 -9.6632881 2.1504703
5.5033884 -9.6339369 2.1504703
5.459619 -9.6088295 2.1504703
5.4135618 -9.5882177 2.1504703
5.3656769 -9.5723066 2.1504703
5.3164425 -9.5612564 2.1504703
5.2663507 -9.5551758 2.1504703
5.2159028 -9.5541258 2.1504703
5.1656017 -9.5581188 2.1504703
5.1159506 -9.5671129 2.1504703
5.0674453 -9.5810184 2.1504703
5.0205708 -9.5996981 2.1504703
4.9757953 -9.622963 2.1504703
4.9335661 -9.6505823 2.1504703
4.8943052 -9.6822796 2.1504703
4.8584051 -9.7177382 2.1504703
4.8262239 -9.7566032 2.1504703
4.7980838 -9.7984867 2.1504703
4.7742653 -9.8429708 2.1504703
4.7550073 -9.8896103 2.1504703
4.7405014 -9.9379387 2.1504703
4.7308927 -9.9874754 2.1504703
4.7262774 -10.037723 2.1504703
4.7267017 -10.08818 2.1504703
4.732161 -10.138343 2.1504703
4.7426009 -10.18771 2.1504703
4.7579174 -10.235788 2.1504703
4.777957 -10.282098 2.1504703
4.8025198 -10.326175 2.1504703
4.8313603 -10.367579 2.1504703
4.8641901 -10.405898 2.1504703
4.9006815 -10.440748 2.1504703
4.9404697 -10.471781 2.1504703
4.9831576 -10.498686 2.1504703
5.0283179 -10.521195 2.1504703
5.0754995 -10.539083 2.1504703
5.1242318 -10.552172 2.1504703
5.174027 -10.56033 2.1504703
5.2243881 -10.563477 2.1504703
5.2748113 -10.561579 2.1504703
5.3247933 -10.554657 2.1504703
5.3738351 -10.54278 2.1504703
5.4214454 -10.526067 2.1504703
5.4671497 -10.504683 2.1504703
5.5104909 -10.478844 2.1504703
5.5510359 -10.448807 2.1504703
5.5883799 -10.414872 2.1504703
5.622149 -10.377378 2.1504703
5.6520066 -10.336701 2.1504703
5.6776543 -10.293246 2.1504703
5.6988354 -10.247448 2.1504703
5.7153382 -10.199764 2.1504703
5.7269983 -10.150671 2.1504703
5.7336988 -10.100658 2.1504703
5.7818685 -10.058713 2.0976248
5.7791147 -10.003682 2.0976248
5.7708807 -9.9492016 2.0976248
5.7572489 -9.8958149 2.0976248
5.7383552 -9.8440552 2.0976248
5.7143888 -9.7944412 2.0976248
5.6855888 -9.747468 2.0976248
5.6522431 -9.7036037 2.0976248
5.6146851 -9.6632881 2.0976248
5.5732899 -9.6269236 2.0976248
5.528471 -9.5948725 2.0976248
5.4806767 -9.5674562 2.0976248
5.4303837 -9.5449495 2.0976248
5.3780947 -9.5275745 2.0976248
5.3243327 -9.5155077 2.0976248
5.2696347 -9.5088682 2.0976248
5.2145472 -9.5077229 2.0976248
5.1596203 -9.5120821 2.0976248
5.1054029 -9.521903 2.0976248
5.0524373 -9.5370884 2.0976248
5.0012517 -9.5574846 2.0976248
4.9523587 -9.5828896 2.0976248
4.9062457 -9.6130495 2.0976248
4.8633747 -9.6476612 2.0976248
4.8241725 -9.6863804 2.0976248
4.789032 -9.7288198 2.0976248
4.7583041 -9.7745552 2.0976248
4.732295 -9.8231297 2.0976248
4.711266 -9.8740587 2.0976248
4.695426 -9.9268322 2.0976248
4.6849337 -9.9809237 2.0976248
4.679894 -10.035792 2.0976248
4.680357 -10.09089 2.0976248
4.6863184 -10.145666 2.0976248
4.6977186 -10.199574 2.0976248
4.7144437 -10.252073 2.0976248
4.7363262 -10.302641 2.0976248
4.7631478 -10.350772 2.0976248
4.7946405 -10.395984 2.0976248
4.8304896 -10.437826 2.0976248
4.870337 -10.475882 2.0976248
4.9137845 -10.509768 2.0976248
4.9603977 -10.539147 2.0976248
5.0097113 -10.563726 2.0976248
5.0612321 -10.58326 2.0976248
5.1144457 -10.597552 2.0976248
5.1688204 -10.606461 2.0976248
5.2238126 -10.609896 2.0976248
5.2788734 -10.607824 2.0976248
5.3334517 -10.600266 2.0976248
5.3870034 -10.587296 2.0976248
5.4389925 -10.569046 2.0976248
5.4888997 -10.545696 2.0976248
5.5362267 -10.517481 2.0976248
5.5805006 -10.484681 2.0976248
5.6212788 -10.447626 2.0976248
5.6581535 -10.406685 2.0976248
5.6907568 -10.362267 2.0976248
5.7187629 -10.314816 2.0976248
5.7418919 -10.264805 2.0976248
5.7599125 -10.212736 2.0976248
5.772645 -10.159127 2.0976248
5.7799621 -10.104516 2.0976248
5.8227844 -10.058713 2.0404088
5.8198261 -9.9995975 2.0404088
5.8109808 -9.9410725 2.0404088
5.7963371 -9.8837233 2.0404088
5.776041 -9.8281221 2.0404088
5.7502956 -9.7748251 2.0404088
5.719358 -9.7243652 2.0404088
5.6835375 -9.6772451 2.0404088
5.6431918 -9.6339369 2.0404088
5.5987239 -9.5948725 2.0404088
5.5505781 -9.5604429 2.0404088
5.4992356 -9.5309925 2.0404088
5.4452095 -9.506814 2.0404088
5.38904 -9.4881506 2.0404088
5.3312874 -9.4751873 2.0404088
5.2725291 -9.4680548 2.0404088
5.2133522 -9.4668236 2.0404088
5.1543484 -9.4715071 2.0404088
5.096107 -9.4820576 2.0404088
5.0392094 -9.4983692 2.0404088
4.9842248 -9.5202808 2.0404088
4.9317026 -9.5475712 2.0404088
4.8821669 -9.5799685 2.0404088
4.836113 -9.6171503 2.0404088
4.7940016 -9.6587429 2.0404088
4.7562528 -9.7043324 2.0404088
4.7232437 -9.7534628 2.0404088
4.6953044 -9.8056431 2.0404088
4.6727142 -9.8603525 2.0404088
4.6556983 -9.9170427 2.0404088
4.6444273 -9.9751492 2.0404088
4.6390133 -10.034091 2.0404088
4.6395111 -10.093278 2.0404088
4.645915 -10.152121 2.0404088
4.6581612 -10.210029 2.0404088
4.6761279 -10.266425 2.0404088
4.6996346 -10.320747 2.0404088
4.728447 -10.37245 2.0404088
4.7622776 -10.421019 2.0404088
4.8007874 -10.465967 2.0404088
4.8435926 -10.506846 2.0404088
4.890265 -10.543248 2.0404088
4.9403381 -10.574808 2.0404088
4.9933119 -10.601213 2.0404088
5.0486574 -10.622195 2.0404088
5.1058207 -10.637548 2.0404088
5.1642313 -10.647119 2.0404088
5.2233057 -10.650809 2.0404088
5.2824531 -10.648583 2.0404088
5.341083 -10.640464 2.0404088
5.3986096 -10.626533 2.0404088
5.4544578 -10.606927 2.0404088
5.5080695 -10.581843 2.0404088
5.5589094 -10.551534 2.0404088
5.6064696 -10.5163 2.0404088
5.6502743 -10.476494 2.0404088
5.6898866 -10.432513 2.0404088
5.7249098 -10.384798 2.0404088
5.7549949 -10.333825 2.0404088
5.7798405 -10.280103 2.0404088
5.7991986 -10.224169 2.0404088
5.8128762 -10.166581 2.0404088
5.8207364 -10.107916 2.0404088
5.8577833 -10.058713 1.9793938
5.8546505 -9.9961033 1.9793938
5.8452826 -9.9341192 1.9793938
5.8297734 -9.8733807 1.9793938
5.8082776 -9.8144932 1.9793938
5.7810106 -9.7580452 1.9793938
5.7482443 -9.7046022 1.9793938
5.7103066 -9.6546974 1.9793938
5.6675758 -9.6088295 1.9793938
5.6204796 -9.5674562 1.9793938
5.5694885 -9.5309925 1.9793938
5.5151114 -9.4998007 1.9793938
5.4578919 -9.4741936 1.9793938
5.3984022 -9.4544258 1.9793938
5.3372359 -9.4406977 1.9793938
5.2750049 -9.4331436 1.9793938
5.2123303 -9.4318399 1.9793938
5.1498389 -9.4368 1.9793938
5.0881548 -9.4479733 1.9793938
5.0278945 -9.46525 1.9793938
4.9696598 -9.4884558 1.9793938
4.9140329 -9.5173588 1.9793938
4.8615699 -9.551672 1.9793938
4.8127937 -9.5910511 1.9793938
4.7681932 -9.6351023 1.9793938
4.7282133 -9.6833868 1.9793938
4.693253 -9.7354212 1.9793938
4.6636624 -9.7906857 1.9793938
4.6397371 -9.848628 1.9793938
4.6217155 -9.9086695 1.9793938
4.6097784 -9.9702101 1.9793938
4.6040444 -10.032636 1.9793938
4.6045713 -10.095322 1.9793938
4.6113539 -10.157641 1.9793938
4.6243238 -10.218972 1.9793938
4.6433525 -10.278703 1.9793938
4.6682487 -10.336235 1.9793938
4.6987643 -10.390994 1.9793938
4.7345943 -10.442433 1.9793938
4.7753806 -10.490039 1.9793938
4.8207154 -10.533334 1.9793938
4.8701468 -10.571887 1.9793938
4.9231791 -10.605313 1.9793938
4.9792843 -10.633278 1.9793938
5.0379009 -10.655501 1.9793938
5.098443 -10.671762 1.9793938
5.160306 -10.681897 1.9793938
5.2228723 -10.685805 1.9793938
5.2855158 -10.683449 1.9793938
5.347611 -10.67485 1.9793938
5.4085374 -10.660094 1.9793938
5.4676867 -10.63933 1.9793938
5.5244675 -10.612764 1.9793938
5.5783119 -10.580663 1.9793938
5.6286831 -10.543346 1.9793938
5.6750774 -10.501187 1.9793938
5.7170305 -10.454607 1.9793938
5.7541242 -10.404072 1.9793938
5.7859874 -10.350085 1.9793938
5.8123016 -10.293188 1.9793938
5.8328042 -10.233948 1.9793938
5.84729 -10.172956 1.9793938
5.8556147 -10.110824 1.9793938
5.8865166 -10.058713 1.9151895
5.8832402 -9.9932346 1.9151895
5.8734431 -9.9284105 1.9151895
5.857223 -9.8648891 1.9151895
5.8347425 -9.8033037 1.9151895
5.8062263 -9.7442703 1.9151895
5.7719588 -9.6883783 1.9151895
5.7322826 -9.6361876 1.9151895
5.6875944 -9.5882177 1.9151895
5.6383405 -9.5449495 1.9151895
5.5850129 -9.506814 1.9151895
5.5281448 -9.4741936 1.9151895
5.4683037 -9.4474125 1.9151895
5.4060884 -9.4267406 1.9151895
5.3421197 -9.4123821 1.9151895
5.2770371 -9.4044819 1.9151895
5.2114916 -9.4031191 1.9151895
5.1461368 -9.4083061 1.9151895
5.0816269 -9.4199915 1.9151895
5.0186052 -9.4380598 1.9151895
4.9577026 -9.4623289 1.9151895
4.8995275 -9.4925566 1.9151895
4.8446603 -9.5284414 1.9151895
4.7936497 -9.5696239 1.9151895
4.7470055 -9.615694 1.9151895
4.7051935 -9.6661901 1.9151895
4.668632 -9.7206087 1.9151895
4.6376858 -9.7784052 1.9151895
4.6126637 -9.8390026 1.9151895
4.5938168 -9.9017954 1.9151895
4.5813327 -9.966156 1.9151895
4.575336 -10.031441 1.9151895
4.5758872 -10.096998 1.9151895
4.5829806 -10.162173 1.9151895
4.5965447 -10.226315 1.9151895
4.6164451 -10.288782 1.9151895
4.6424818 -10.348949 1.9151895
4.6743956 -10.406218 1.9151895
4.7118673 -10.460013 1.9151895
4.7545218 -10.5098 1.9151895
4.8019342 -10.555079 1.9151895
4.8536301 -10.595399 1.9151895
4.9090924 -10.630356 1.9151895
4.9677682 -10.659602 1.9151895
5.0290699 -10.682843 1.9151895
5.0923862 -10.699849 1.9151895
5.1570835 -10.710449 1.9151895
5.2225161 -10.714537 1.9151895
5.2880297 -10.712071 1.9151895
5.3529701 -10.703078 1.9151895
5.416688 -10.687647 1.9151895
5.4785471 -10.665932 1.9151895
5.5379291 -10.638148 1.9151895
5.5942411 -10.604576 1.9151895
5.6469197 -10.56555 1.9151895
5.6954393 -10.52146 1.9151895
5.739315 -10.472746 1.9151895
5.7781081 -10.419895 1.9151895
5.8114309 -10.363436 1.9151895
5.8389511 -10.303931 1.9151895
5.860393 -10.241977 1.9151895
5.8755426 -10.178191 1.9151895
5.8842487 -10.113212 1.9151895
5.9086967 -10.058713 1.8484375
5.9053092 -9.9910202 1.8484375
5.8951807 -9.9240046 1.8484375
5.8784122 -9.8583345 1.8484375
5.8551717 -9.7946663 1.8484375
5.8256912 -9.7336369 1.8484375
5.7902646 -9.6758547 1.8484375
5.7492471 -9.6218987 1.8484375
5.7030473 -9.5723066 1.8484375
5.6521277 -9.5275755 1.8484375
5.5969968 -9.4881506 1.8484375
5.5382051 -9.4544268 1.8484375
5.4763408 -9.4267406 1.8484375
5.4120212 -9.4053688 1.8484375
5.3458896 -9.3905249 1.8484375
5.2786064 -9.3823576 1.8484375
5.2108436 -9.3809481 1.8484375
5.1432791 -9.3863106 1.8484375
5.0765872 -9.3983917 1.8484375
5.011435 -9.4170704 1.8484375
4.9484725 -9.4421606 1.8484375
4.88833 -9.4734106 1.8484375
4.8316073 -9.5105085 1.8484375
4.778872 -9.5530844 1.8484375
4.7306504 -9.6007128 1.8484375
4.6874242 -9.6529169 1.8484375
4.6496263 -9.7091751 1.8484375
4.6176333 -9.7689257 1.8484375
4.5917654 -9.8315725 1.8484375
4.5722809 -9.8964882 1.8484375
4.5593748 -9.9630251 1.8484375
4.5531754 -10.030519 1.8484375
4.5537453 -10.098293 1.8484375
4.5610781 -10.165672 1.8484375
4.5751014 -10.231983 1.8484375
4.5956745 -10.296562 1.8484375
4.622592 -10.358765 1.8484375
4.6555848 -10.41797 1.8484375
4.6943235 -10.473585 1.8484375
4.738421 -10.525055 1.8484375
4.7874365 -10.571865 1.8484375
4.8408804 -10.613548 1.8484375
4.8982186 -10.649688 1.8484375
4.9588785 -10.679922 1.8484375
5.0222535 -10.70395 1.8484375
5.0877104 -10.721531 1.8484375
5.1545959 -10.732489 1.8484375
5.2222414 -10.736714 1.8484375
5.2899704 -10.734166 1.8484375
5.3571067 -10.724869 1.8484375
5.4229794 -10.708916 1.8484375
5.4869304 -10.686466 1.8484375
5.5483208 -10.657743 1.8484375
5.6065369 -10.623036 1.8484375
5.6609974 -10.58269 1.8484375
5.7111578 -10.537108 1.8484375
5.7565169 -10.486748 1.8484375
5.7966218 -10.432109 1.8484375
5.8310719 -10.37374 1.8484375
5.8595223 -10.312223 1.8484375
5.8816895 -10.248174 1.8484375
5.8973513 -10.182231 1.8484375
5.906352 -10.115054 1.8484375
5.9241018 -10.058713 1.7798047
5.9206371 -9.9894829 1.7798047
5.9102788 -9.9209442 1.7798047
5.8931293 -9.8537817 1.7798047
5.8693609 -9.7886677 1.7798047
5.83921 -9.7262506 1.7798047
5.802979 -9.6671562 1.7798047
5.7610292 -9.6119747 1.7798047
5.7137804 -9.5612564 1.7798047
5.6617036 -9.5155077 1.7798047
5.60532 -9.4751873 1.7798047
5.5451932 -9.4406977 1.7798047
5.4819231 -9.4123821 1.7798047
5.416142 -9.3905249 1.7798047
5.3485079 -9.3753443 1.7798047
5.279696 -9.366991 1.7798047
5.2103939 -9.36555 1.7798047
5.141294 -9.3710346 1.7798047
5.0730872 -9.3833895 1.7798047
5.0064545 -9.4024925 1.7798047
4.9420619 -9.428153 1.7798047
4.8805528 -9.4601126 1.7798047
4.8225412 -9.4980536 1.7798047
4.7686076 -9.5415974 1.7798047
4.7192907 -9.5903072 1.7798047
4.6750827 -9.6436968 1.7798047
4.636426 -9.7012339 1.7798047
4.6037059 -9.7623425 1.7798047
4.5772505 -9.8264122 1.7798047
4.5573235 -9.8928032 1.7798047
4.5441236 -9.9608517 1.7798047
4.5377836 -10.029878 1.7798047
4.5383663 -10.099193 1.7798047
4.545866 -10.168102 1.7798047
4.5602078 -10.23592 1.7798047
4.5812483 -10.301966 1.7798047
4.608777 -10.365582 1.7798047
4.64252 -10.426132 1.7798047
4.6821384 -10.48301 1.7798047
4.7272377 -10.535649 1.7798047
4.7773671 -10.583524 1.7798047
4.8320251 -10.626154 1.7798047
4.890666 -10.663115 1.7798047
4.952704 -10.694036 1.7798047
5.017519 -10.71861 1.7798047
5.0844631 -10.736589 1.7798047
5.1528683 -10.747797 1.7798047
5.2220502 -10.752119 1.7798047
5.2913184 -10.749513 1.7798047
5.3599801 -10.740004 1.7798047
5.4273491 -10.723688 1.7798047
5.492753 -10.700728 1.7798047
5.5555382 -10.671353 1.7798047
5.615077 -10.635858 1.7798047
5.6707749 -10.594595 1.7798047
5.722075 -10.547977 1.7798047
5.7684646 -10.496472 1.7798047
5.8094807 -10.440593 1.7798047
5.8447132 -10.380898 1.7798047
5.8738103 -10.317984 1.7798047
5.8964806 -10.252479 1.7798047
5.9124985 -10.185038 1.7798047
5.9217033 -10.116335 1.7798047
5.9325781 -10.058713 1.7099768
5.9290714 -9.988636 1.7099768
5.9185858 -9.91926 1.7099768
5.901227 -9.8512774 1.7099768
5.8771677 -9.785367 1.7099768
5.8466487 -9.722187 1.7099768
5.8099747 -9.6623707 1.7099768
5.7675123 -9.606514 1.7099768
5.7196856 -9.5551758 1.7099768
5.6669726 -9.5088682 1.7099768
5.6099 -9.4680548 1.7099768
5.5490379 -9.4331436 1.7099768
5.4849944 -9.4044819 1.7099768
5.4184093 -9.3823576 1.7099768
5.3499484 -9.366991 1.7099768
5.2802954 -9.3585358 1.7099768
5.2101464 -9.3570776 1.7099768
5.140202 -9.3626289 1.7099768
5.0711613 -9.3751354 1.7099768
5.0037141 -9.3944721 1.7099768
4.9385347 -9.4204454 1.7099768
4.8762736 -9.452796 1.7099768
4.817553 -9.4912014 1.7099768
4.7629604 -9.5352764 1.7099768
4.7130404 -9.5845814 1.7099768
4.668292 -9.6386242 1.7099768
4.6291628 -9.6968641 1.7099768
4.5960431 -9.7587194 1.7099768
4.5692639 -9.8235731 1.7099768
4.5490932 -9.8907747 1.7099768
4.5357323 -9.9596558 1.7099768
4.529315 -10.029526 1.7099768
4.5299044 -10.099688 1.7099768
4.5374961 -10.169439 1.7099768
4.5520129 -10.238086 1.7099768
4.5733109 -10.304939 1.7099768
4.6011763 -10.369333 1.7099768
4.6353312 -10.430623 1.7099768
4.6754341 -10.488196 1.7099768
4.7210846 -10.541479 1.7099768
4.7718267 -10.589938 1.7099768
4.8271527 -10.63309 1.7099768
4.8865104 -10.670502 1.7099768
4.9493065 -10.701801 1.7099768
5.014914 -10.726675 1.7099768
5.0826764 -10.744875 1.7099768
5.1519175 -10.75622 1.7099768
5.2219453 -10.760594 1.7099768
5.2920599 -10.757956 1.7099768
5.3615608 -10.748331 1.7099768
5.4297538 -10.731816 1.7099768
5.4959569 -10.708575 1.7099768
5.5595093 -10.678842 1.7099768
5.6197762 -10.642912 1.7099768
5.6761546 -10.601145 1.7099768
5.7280817 -10.553958 1.7099768
5.7750382 -10.501822 1.7099768
5.816556 -10.44526 1.7099768
5.8522191 -10.384835 1.7099768
5.8816714 -10.321153 1.7099768
5.9046192 -10.254847 1.7099768
5.9208331 -10.186582 1.7099768
5.9301505 -10.117039 1.7099768
5.9340405 -10.058713 1.6396514
5.9305267 -9.9884901 1.6396514
5.9200196 -9.9189692 1.6396514
5.9026246 -9.8508444 1.6396514
5.8785152 -9.7847967 1.6396514
5.8479323 -9.7214861 1.6396514
5.811182 -9.6615448 1.6396514
5.768631 -9.6055717 1.6396514
5.7207046 -9.5541258 1.6396514
5.667882 -9.5077229 1.6396514
5.6106901 -9.4668236 1.6396514
5.5497012 -9.4318399 1.6396514
5.4855242 -9.4031191 1.6396514
5.4188008 -9.3809481 1.6396514
5.3501973 -9.36555 1.6396514
5.2803988 -9.3570776 1.6396514
5.2101035 -9.3556147 1.6396514
5.1400137 -9.3611784 1.6396514
5.0708289 -9.3737106 1.6396514
5.0032415 -9.3930874 1.6396514
4.9379258 -9.4191151 1.6396514
4.875535 -9.4515333 1.6396514
4.8166924 -9.4900188 1.6396514
4.7619858 -9.5341854 1.6396514
4.7119617 -9.5835934 1.6396514
4.66712 -9.6377487 1.6396514
4.6279092 -9.6961098 1.6396514
4.5947204 -9.7580948 1.6396514
4.5678859 -9.8230829 1.6396514
4.5476732 -9.8904247 1.6396514
4.5342841 -9.9594488 1.6396514
4.5278535 -10.029465 1.6396514
4.5284443 -10.099772 1.6396514
4.5360518 -10.16967 1.6396514
4.5505991 -10.23846 1.6396514
4.5719409 -10.305452 1.6396514
4.5998645 -10.36998 1.6396514
4.6340904 -10.431397 1.6396514
4.6742773 -10.489092 1.6396514
4.7200227 -10.542485 1.6396514
4.7708702 -10.591045 1.6396514
4.8263121 -10.634287 1.6396514
4.8857932 -10.671777 1.6396514
4.9487205 -10.703141 1.6396514
5.0144644 -10.728067 1.6396514
5.0823684 -10.746305 1.6396514
5.1517534 -10.757673 1.6396514
5.2219272 -10.762056 1.6396514
5.2921877 -10.759413 1.6396514
5.3618336 -10.749768 1.6396514
5.4301686 -10.733219 1.6396514
5.49651 -10.709929 1.6396514
5.560195 -10.680134 1.6396514
5.6205869 -10.644129 1.6396514
5.677083 -10.602275 1.6396514
5.7291183 -10.55499 1.6396514
5.7761726 -10.502747 1.6396514
5.8177767 -10.446066 1.6396514
5.8535142 -10.385515 1.6396514
5.883028 -10.321699 1.6396514
5.906024 -10.255256 1.6396514
5.9222713 -10.186848 1.6396514
5.9316082 -10.117161 1.6396514
5.9284754 -10.058713 1.5695314
5.9249887 -9.9890461 1.5695314
5.9145651 -9.9200754 1.5695314
5.8973074 -9.8524895 1.5695314
5.8733888 -9.7869644 1.5695314
5.8430481 -9.7241545 1.5695314
5.8065886 -9.6646872 1.5695314
5.7643743 -9.6091566 1.5695314
5.7168274 -9.5581188 1.5695314
5.664422 -9.5120821 1.5695314
5.6076832 -9.4715071 1.5695314
5.5471768 -9.4368 1.5695314
5.4835076 -9.4083061 1.5695314
5.4173121 -9.3863106 1.5695314
5.3492513 -9.3710346 1.5695314
5.2800055 -9.3626289 1.5695314
5.2102661 -9.3611784 1.5695314
5.1407309 -9.3666973 1.5695314
5.0720935 -9.3791304 1.5695314
5.0050406 -9.3983545 1.5695314
4.9402418 -9.4241762 1.5695314
4.8783445 -9.4563379 1.5695314
4.8199677 -9.4945183 1.5695314
4.7656937 -9.5383358 1.5695314
4.7160659 -9.5873528 1.5695314
4.6715789 -9.6410799 1.5695314
4.632678 -9.6989794 1.5695314
4.5997519 -9.7604733 1.5695314
4.5731297 -9.8249474 1.5695314
4.5530767 -9.891757 1.5695314
4.539794 -9.9602346 1.5695314
4.5334139 -10.029696 1.5695314
4.5340004 -10.099447 1.5695314
4.5415473 -10.168793 1.5695314
4.5559797 -10.237037 1.5695314
4.5771527 -10.3035 1.5695314
4.6048555 -10.367517 1.5695314
4.6388106 -10.428449 1.5695314
4.6786795 -10.485686 1.5695314
4.7240629 -10.538657 1.5695314
4.7745085 -10.586834 1.5695314
4.8295112 -10.629732 1.5695314
4.8885221 -10.666926 1.5695314
4.9509511 -10.698043 1.5695314
5.0161748 -10.722772 1.5695314
5.0835414 -10.740865 1.5695314
5.1523776 -10.752143 1.5695314
5.2219963 -10.756492 1.5695314
5.2917008 -10.753869 1.5695314
5.3607955 -10.744301 1.5695314
5.4285898 -10.727881 1.5695314
5.4944062 -10.704777 1.5695314
5.5575871 -10.675217 1.5695314
5.6175017 -10.639497 1.5695314
5.6735506 -10.597974 1.5695314
5.725174 -10.551064 1.5695314
5.7718563 -10.499233 1.5695314
5.8131313 -10.443001 1.5695314
5.8485861 -10.382929 1.5695314
5.8778663 -10.319618 1.5695314
5.9006801 -10.2537 1.5695314
5.9167991 -10.185834 1.5695314
5.9260616 -10.116698 1.5695314
5.9159374 -10.058713 1.5003175
5.9125137 -9.9902973 1.5003175
5.902277 -9.9225664 1.5003175
5.8853297 -9.8561945 1.5003175
5.8618407 -9.7918463 1.5003175
5.8320451 -9.7301655 1.5003175
5.7962408 -9.6717663 1.5003175
5.7547851 -9.6172342 1.5003175
5.7080922 -9.5671129 1.5003175
5.6566286 -9.521903 1.5003175
5.6009088 -9.4820576 1.5003175
5.5414896 -9.4479733 1.5003175
5.4789643 -9.4199915 1.5003175
5.4139581 -9.3983917 1.5003175
5.3471203 -9.3833895 1.5003175
5.2791185 -9.3751354 1.5003175
5.2106323 -9.3737106 1.5003175
5.1423464 -9.3791304 1.5003175
5.0749421 -9.3913403 1.5003175
5.0090942 -9.4102192 1.5003175
4.9454594 -9.4355764 1.5003175
4.8846745 -9.4671602 1.5003175
4.8273463 -9.5046549 1.5003175
4.7740474 -9.5476856 1.5003175
4.7253113 -9.5958214 1.5003175
4.6816235 -9.6485834 1.5003175
4.6434216 -9.7054424 1.5003175
4.6110873 -9.7658319 1.5003175
4.5849433 -9.8291473 1.5003175
4.5652509 -9.8947563 1.5003175
4.5522065 -9.9620037 1.5003175
4.5459409 -10.030217 1.5003175
4.5465169 -10.098716 1.5003175
4.5539284 -10.166815 1.5003175
4.5681009 -10.233833 1.5003175
4.5888939 -10.299102 1.5003175
4.6160989 -10.361969 1.5003175
4.6494441 -10.421806 1.5003175
4.6885962 -10.478015 1.5003175
4.7331648 -10.530034 1.5003175
4.7827034 -10.577345 1.5003175
4.8367181 -10.619473 1.5003175
4.8946686 -10.655998 1.5003175
4.9559765 -10.686556 1.5003175
5.0200281 -10.71084 1.5003175
5.0861845 -10.728609 1.5003175
5.1537838 -10.739684 1.5003175
5.2221513 -10.743955 1.5003175
5.2906036 -10.741379 1.5003175
5.3584571 -10.731982 1.5003175
5.4250336 -10.715858 1.5003175
5.4896674 -10.69317 1.5003175
5.551713 -10.664141 1.5003175
5.6105509 -10.629063 1.5003175
5.6655927 -10.588285 1.5003175
5.716289 -10.542217 1.5003175
5.7621326 -10.491318 1.5003175
5.8026657 -10.436096 1.5003175
5.8374834 -10.377104 1.5003175
5.8662376 -10.314931 1.5003175
5.8886414 -10.250197 1.5003175
5.9044709 -10.18355 1.5003175
5.9135675 -10.115656 1.5003175
5.8965521 -10.058713 1.4327009
5.8932252 -9.9922333 1.4327009
5.8832784 -9.9264174 1.4327009
5.8668103 -9.8619232 1.4327009
5.843986 -9.7993956 1.4327009
5.815033 -9.739459 1.4327009
5.7802415 -9.6827126 1.4327009
5.7399583 -9.6297226 1.4327009
5.6945863 -9.5810184 1.4327009
5.6445785 -9.5370884 1.4327009
5.590435 -9.4983692 1.4327009
5.5326967 -9.46525 1.4327009
5.47194 -9.4380598 1.4327009
5.4087725 -9.4170704 1.4327009
5.3438253 -9.4024925 1.4327009
5.2777472 -9.3944721 1.4327009
5.2111983 -9.3930874 1.4327009
5.1448441 -9.3983545 1.4327009
5.0793467 -9.4102192 1.4327009
5.0153608 -9.4285631 1.4327009
4.9535265 -9.4532032 1.4327009
4.8944612 -9.4838943 1.4327009
4.8387547 -9.5203276 1.4327009
4.7869635 -9.5621405 1.4327009
4.7396054 -9.6089153 1.4327009
4.697154 -9.6601849 1.4327009
4.6600327 -9.715436 1.4327009
4.628613 -9.7741165 1.4327009
4.6032085 -9.8356409 1.4327009
4.5840731 -9.899394 1.4327009
4.5713978 -9.9647398 1.4327009
4.5653095 -10.031023 1.4327009
4.5658689 -10.097584 1.4327009
4.5730705 -10.163756 1.4327009
4.5868425 -10.22888 1.4327009
4.6070471 -10.292302 1.4327009
4.6334825 -10.353391 1.4327009
4.6658845 -10.411535 1.4327009
4.7039294 -10.466154 1.4327009
4.7472372 -10.516702 1.4327009
4.7953744 -10.562674 1.4327009
4.8478613 -10.603611 1.4327009
4.9041724 -10.639103 1.4327009
4.9637461 -10.668796 1.4327009
5.0259857 -10.692393 1.4327009
5.0902705 -10.70966 1.4327009
5.1559582 -10.720421 1.4327009
5.2223916 -10.724571 1.4327009
5.2889075 -10.722069 1.4327009
5.3548417 -10.712937 1.4327009
5.4195347 -10.69727 1.4327009
5.4823403 -10.675222 1.4327009
5.5426307 -10.647015 1.4327009
5.5998044 -10.612928 1.4327009
5.6532893 -10.573305 1.4327009
5.7025514 -10.52854 1.4327009
5.747098 -10.479081 1.4327009
5.7864847 -10.425422 1.4327009
5.8203173 -10.368097 1.4327009
5.8482585 -10.307683 1.4327009
5.8700285 -10.244781 1.4327009
5.8854098 -10.180019 1.4327009
5.8942494 -10.114045 1.4327009
5.8705134 -10.058713 1.3673575
5.8673167 -9.994832 1.3673575
5.8577585 -9.9315901 1.3673575
5.8419347 -9.8696184 1.3673575
5.8200026 -9.809536 1.3673575
5.792182 -9.7519426 1.3673575
5.7587509 -9.6974144 1.3673575
5.7200427 -9.6464968 1.3673575
5.676445 -9.5996981 1.3673575
5.6283927 -9.5574846 1.3673575
5.5763664 -9.5202808 1.3673575
5.5208855 -9.4884558 1.3673575
5.4625049 -9.4623289 1.3673575
5.4018073 -9.4421606 1.3673575
5.3393998 -9.428153 1.3673575
5.2759051 -9.4204454 1.3673575
5.2119589 -9.4191151 1.3673575
5.1481986 -9.4241762 1.3673575
5.0852628 -9.4355764 1.3673575
5.0237789 -9.4532032 1.3673575
4.9643626 -9.4768801 1.3673575
4.9076066 -9.5063705 1.3673575
4.8540783 -9.5413799 1.3673575
4.8043122 -9.5815582 1.3673575
4.7588062 -9.6265039 1.3673575
4.7180147 -9.6757679 1.3673575
4.6823449 -9.7288589 1.3673575
4.652154 -9.7852449 1.3673575
4.6277428 -9.8443632 1.3673575
4.6093554 -9.9056244 1.3673575
4.5971756 -9.9684143 1.3673575
4.5913258 -10.032106 1.3673575
4.5918632 -10.096065 1.3673575
4.5987835 -10.159649 1.3673575
4.6120167 -10.222225 1.3673575
4.6314316 -10.283168 1.3673575
4.6568332 -10.341868 1.3673575
4.6879683 -10.397738 1.3673575
4.7245255 -10.450222 1.3673575
4.7661395 -10.498794 1.3673575
4.8123946 -10.542968 1.3673575
4.8628292 -10.582304 1.3673575
4.9169383 -10.616408 1.3673575
4.9741821 -10.64494 1.3673575
5.0339885 -10.667615 1.3673575
5.0957594 -10.684205 1.3673575
5.1588783 -10.694547 1.3673575
5.2227144 -10.698534 1.3673575
5.2866292 -10.69613 1.3673575
5.3499851 -10.687356 1.3673575
5.4121485 -10.6723 1.3673575
5.4724979 -10.651115 1.3673575
5.5304313 -10.62401 1.3673575
5.5853691 -10.591257 1.3673575
5.6367626 -10.553184 1.3673575
5.6840982 -10.510169 1.3673575
5.7269034 -10.462644 1.3673575
5.76475 -10.411082 1.3673575
5.7972598 -10.356 1.3673575
5.8241081 -10.297948 1.3673575
5.845027 -10.237505 1.3673575
5.859807 -10.175276 1.3673575
5.8683004 -10.111881 1.3673575
5.8380814 -10.058713 1.3049401
5.8350468 -9.9980707 1.3049401
5.825973 -9.9380331 1.3049401
5.8109512 -9.8792028 1.3049401
5.7901306 -9.8221655 1.3049401
5.7637205 -9.7674913 1.3049401
5.7319837 -9.7157269 1.3049401
5.6952376 -9.6673899 1.3049401
5.6538491 -9.622963 1.3049401
5.6082325 -9.5828896 1.3049401
5.5588431 -9.5475712 1.3049401
5.5061746 -9.5173588 1.3049401
5.4507527 -9.4925566 1.3049401
5.3931317 -9.4734106 1.3049401
5.3338871 -9.4601126 1.3049401
5.2736111 -9.452796 1.3049401
5.2129059 -9.4515333 1.3049401
5.1523776 -9.4563379 1.3049401
5.0926313 -9.4671602 1.3049401
5.0342641 -9.4838943 1.3049401
4.977859 -9.5063705 1.3049401
4.9239798 -9.5343666 1.3049401
4.8731647 -9.5676012 1.3049401
4.8259211 -9.6057425 1.3049401
