# .PCD v0.7 - Point Cloud Data file format
VERSION 0.7
FIELDS x y z
SIZE 4 4 4
TYPE F F F
COUNT 1 1 1
WIDTH 1553
HEIGHT 1
VIEWPOINT 0 0 0 1 0 0 0
POINTS 1553
DATA ascii
21.273849 13.140216 0.75653172
21.284227 13.217669 0.75653172
21.313368 13.282628 0.67696607
21.309332 13.363315 0.67696607
21.297258 13.443194 0.67696607
21.277271 13.521471 0.67696607
21.249569 13.597361 0.67696607
21.21443 13.670105 0.67696607
21.172203 13.738978 0.67696607
21.123312 13.803292 0.67696607
21.068243 13.862404 0.67696607
21.007549 13.915722 0.67696607
20.941835 13.962714 0.67696607
20.871759 14.002912 0.67696607
20.798019 14.035913 0.67696607
20.721354 14.061387 0.67696607
20.642527 14.07908 0.67696607
20.562328 14.088815 0.67696607
20.481558 14.090495 0.67696607
20.401024 14.084103 0.67696607
20.321529 14.069702 0.67696607
20.243872 14.047439 0.67696607
20.168823 14.017532 0.67696607
20.097136 13.980284 0.67696607
20.029524 13.936064 0.67696607
19.966665 13.885315 0.67696607
19.909187 13.828545 0.67696607
19.857664 13.76632 0.67696607
19.812611 13.699263 0.67696607
19.774477 13.628041 0.67696607
19.743643 13.55337 0.67696607
19.720419 13.475992 0.67696607
19.705034 13.396684 0.67696607
19.697645 13.316235 0.67696607
19.698324 13.23545 0.67696607
19.707066 13.155137 0.67696607
19.72378 13.076097 0.67696607
19.748302 12.999122 0.67696607
19.780386 12.924979 0.67696607
19.819714 12.854409 0.67696607
19.865889 12.788118 0.67696607
19.918449 12.726768 0.67696607
19.976875 12.670973 0.67696607
20.040577 12.621288 0.67696607
20.108921 12.578211 0.67696607
20.181227 12.542173 0.67696607
20.256765 12.513533 0.67696607
20.334789 12.492578 0.67696607
20.414513 12.479516 0.67696607
20.495144 12.474479 0.67696607
20.575872 12.477516 0.67696607
20.655897 12.488599 0.67696607
20.734415 12.507614 0.67696607
20.810642 12.534373 0.67696607
20.883816 12.568609 0.67696607
20.953207 12.609979 0.67696607
21.018122 12.65807 0.67696607
21.077911 12.7124 0.67696607
21.131977 12.772429 0.67696607
21.179781 12.837556 0.67696607
21.220842 12.907129 0.67696607
21.254755 12.980454 0.67696607
21.281178 13.056799 0.67696607
21.299845 13.1354 0.67696607
21.310574 13.215471 0.67696607
21.33173 13.282628 0.5951587
21.327602 13.365148 0.5951587
21.315254 13.446843 0.5951587
21.294813 13.526897 0.5951587
21.266481 13.604511 0.5951587
21.230543 13.678908 0.5951587
21.187359 13.749347 0.5951587
21.137356 13.815122 0.5951587
21.081038 13.875576 0.5951587
21.018963 13.930105 0.5951587
20.951757 13.978166 0.5951587
20.880089 14.019277 0.5951587
20.804672 14.053027 0.5951587
20.726265 14.07908 0.5951587
20.645647 14.097175 0.5951587
20.563627 14.107131 0.5951587
20.481022 14.108849 0.5951587
20.398659 14.102312 0.5951587
20.317358 14.087584 0.5951587
20.237934 14.064815 0.5951587
20.16118 14.034229 0.5951587
20.087866 13.996134 0.5951587
20.018719 13.95091 0.5951587
19.954432 13.899008 0.5951587
19.895647 13.840948 0.5951587
19.842953 13.777309 0.5951587
19.796877 13.708728 0.5951587
19.757875 13.635889 0.5951587
19.726341 13.559521 0.5951587
19.702589 13.480386 0.5951587
19.686855 13.399275 0.5951587
19.679298 13.316998 0.5951587
19.679993 13.234378 0.5951587
19.688932 13.152241 0.5951587
19.706028 13.071405 0.5951587
19.731108 12.992681 0.5951587
19.76392 12.916853 0.5951587
19.80414 12.844681 0.5951587
19.851364 12.776884 0.5951587
19.905121 12.71414 0.5951587
19.964872 12.657076 0.5951587
20.030022 12.606263 0.5951587
20.09992 12.562207 0.5951587
20.173866 12.525351 0.5951587
20.251123 12.496059 0.5951587
20.330917 12.474628 0.5951587
20.412453 12.461269 0.5951587
20.494915 12.456119 0.5951587
20.57748 12.459225 0.5951587
20.659321 12.470558 0.5951587
20.739624 12.490006 0.5951587
20.817581 12.517373 0.5951587
20.89242 12.552387 0.5951587
20.963387 12.594697 0.5951587
21.029776 12.64388 0.5951587
21.090923 12.699446 0.5951587
21.146217 12.760838 0.5951587
21.195107 12.827444 0.5951587
21.237103 12.898598 0.5951587
21.271786 12.973589 0.5951587
21.298807 13.051668 0.5951587
21.3179 13.132054 0.5951587
21.328873 13.213945 0.5951587
21.341835 13.282628 0.51192677
21.337654 13.366157 0.51192677
21.325157 13.44885 0.51192677
21.304464 13.529883 0.51192677
21.275787 13.608445 0.51192677
21.23941 13.683752 0.51192677
21.195696 13.755052 0.51192677
21.145082 13.82163 0.51192677
21.088076 13.882823 0.51192677
21.025244 13.93802 0.51192677
20.957216 13.986668 0.51192677
20.88467 14.02828 0.51192677
20.808334 14.062444 0.51192677
20.728968 14.088815 0.51192677
20.647366 14.107131 0.51192677
20.564341 14.117208 0.51192677
20.480726 14.118948 0.51192677
20.397356 14.11233 0.51192677
20.315063 14.097424 0.51192677
20.234669 14.074375 0.51192677
20.156977 14.043416 0.51192677
20.082764 14.004855 0.51192677
20.012772 13.959078 0.51192677
19.947701 13.906542 0.51192677
19.888197 13.847773 0.51192677
19.83486 13.783356 0.51192677
19.788219 13.713936 0.51192677
19.748741 13.640207 0.51192677
19.716822 13.562905 0.51192677
19.69278 13.482803 0.51192677
19.676853 13.400701 0.51192677
19.669205 13.317418 0.51192677
19.669907 13.233788 0.51192677
19.678957 13.150647 0.51192677
19.69626 13.068824 0.51192677
19.721645 12.989137 0.51192677
19.75486 12.912382 0.51192677
19.79557 12.839328 0.51192677
19.843372 12.770701 0.51192677
19.897785 12.707191 0.51192677
19.958267 12.64943 0.51192677
20.024214 12.597996 0.51192677
20.094967 12.553402 0.51192677
20.169817 12.516094 0.51192677
20.248018 12.486445 0.51192677
20.328789 12.464752 0.51192677
20.41132 12.45123 0.51192677
20.494791 12.446015 0.51192677
20.578363 12.449161 0.51192677
20.661205 12.460632 0.51192677
20.742489 12.480318 0.51192677
20.821402 12.508019 0.51192677
20.897152 12.543461 0.51192677
20.968988 12.586288 0.51192677
21.036188 12.636072 0.51192677
21.098083 12.692317 0.51192677
21.154055 12.75446 0.51192677
21.203541 12.82188 0.51192677
21.24605 12.893904 0.51192677
21.281157 12.969811 0.51192677
21.308508 13.048845 0.51192677
21.327835 13.130214 0.51192677
21.338942 13.213106 0.51192677
21.343578 13.282628 0.42810208
21.33939 13.36633 0.42810208
21.326864 13.449197 0.42810208
21.306131 13.530398 0.42810208
21.277393 13.609124 0.42810208
21.24094 13.684588 0.42810208
21.197136 13.756036 0.42810208
21.146416 13.822753 0.42810208
21.089291 13.884074 0.42810208
21.026327 13.939385 0.42810208
20.958158 13.988134 0.42810208
20.885462 14.029835 0.42810208
20.808966 14.064069 0.42810208
20.729433 14.090495 0.42810208
20.647661 14.108849 0.42810208
20.564465 14.118948 0.42810208
20.480677 14.12069 0.42810208
20.397131 14.114059 0.42810208
20.314667 14.099121 0.42810208
20.234104 14.076025 0.42810208
20.156252 14.045001 0.42810208
20.081884 14.00636 0.42810208
20.011745 13.960487 0.42810208
19.946539 13.907843 0.42810208
19.886911 13.84895 0.42810208
19.833462 13.784399 0.42810208
19.786724 13.714835 0.42810208
19.747166 13.640952 0.42810208
19.715179 13.563489 0.42810208
19.691086 13.48322 0.42810208
19.675129 13.400947 0.42810208
19.667463 13.317491 0.42810208
19.668167 13.233686 0.42810208
19.677235 13.150372 0.42810208
19.694574 13.068378 0.42810208
19.720013 12.988525 0.42810208
19.753296 12.911611 0.42810208
19.794092 12.838404 0.42810208
19.841993 12.769635 0.42810208
19.896521 12.705992 0.42810208
19.957129 12.64811 0.42810208
20.023212 12.596569 0.42810208
20.094112 12.551882 0.42810208
20.169119 12.514497 0.42810208
20.247482 12.484786 0.42810208
20.328421 12.463047 0.42810208
20.411125 12.449498 0.42810208
20.494768 12.444272 0.42810208
20.578516 12.447424 0.42810208
20.661531 12.45892 0.42810208
20.742983 12.478646 0.42810208
20.82206 12.506406 0.42810208
20.89797 12.541921 0.42810208
20.969954 12.584837 0.42810208
21.037294 12.634726 0.42810208
21.099319 12.691087 0.42810208
21.155405 12.75336 0.42810208
21.204996 12.82092 0.42810208
21.247593 12.893094 0.42810208
21.282772 12.96916 0.42810208
21.310183 13.048358 0.42810208
21.32955 13.129896 0.42810208
21.340677 13.212961 0.42810208
21.336945 13.282628 0.34452206
21.332788 13.365668 0.34452206
21.320364 13.447879 0.34452206
21.299793 13.528438 0.34452206
21.271284 13.606541 0.34452206
21.235119 13.681408 0.34452206
21.19166 13.75229 0.34452206
21.141342 13.81848 0.34452206
21.084669 13.879315 0.34452206
21.022203 13.934189 0.34452206
20.954573 13.982553 0.34452206
20.882452 14.023922 0.34452206
20.806562 14.057885 0.34452206
20.727659 14.084103 0.34452206
20.646534 14.102312 0.34452206
20.563995 14.11233 0.34452206
20.480869 14.114059 0.34452206
20.397985 14.107481 0.34452206
20.316174 14.092661 0.34452206
20.23625 14.069748 0.34452206
20.159012 14.038969 0.34452206
20.085234 14.000634 0.34452206
20.01565 13.955124 0.34452206
19.950958 13.902896 0.34452206
19.891804 13.844469 0.34452206
19.838778 13.780429 0.34452206
19.79241 13.711415 0.34452206
19.753162 13.638117 0.34452206
19.72143 13.561267 0.34452206
19.697527 13.481633 0.34452206
19.681696 13.40001 0.34452206
19.674091 13.317215 0.34452206
19.674789 13.234074 0.34452206
19.683784 13.151418 0.34452206
19.700987 13.070073 0.34452206
19.726225 12.990852 0.34452206
19.759245 12.914547 0.34452206
19.799719 12.841919 0.34452206
19.84724 12.773694 0.34452206
19.901337 12.710554 0.34452206
19.961464 12.653131 0.34452206
20.027025 12.601997 0.34452206
20.097364 12.557664 0.34452206
20.171778 12.520575 0.34452206
20.249521 12.491098 0.34452206
20.329819 12.469532 0.34452206
20.411869 12.45609 0.34452206
20.49485 12.450906 0.34452206
20.577936 12.454032 0.34452206
20.660294 12.465437 0.34452206
20.741102 12.485007 0.34452206
20.819551 12.512547 0.34452206
20.894861 12.547781 0.34452206
20.966276 12.590358 0.34452206
21.033085 12.639852 0.34452206
21.094618 12.695767 0.34452206
21.150261 12.757547 0.34452206
21.199459 12.824574 0.34452206
21.24172 12.896176 0.34452206
21.276621 12.97164 0.34452206
21.303814 13.050211 0.34452206
21.323027 13.131105 0.34452206
21.334068 13.213512 0.34452206
21.321999 13.282628 0.26202187
21.317919 13.364176 0.26202187
21.305717 13.444909 0.26202187
21.285517 13.524021 0.26202187
21.257519 13.600721 0.26202187
21.222004 13.674243 0.26202187
21.179325 13.743852 0.26202187
21.129913 13.808852 0.26202187
21.074257 13.868594 0.26202187
21.012915 13.922482 0.26202187
20.946499 13.969976 0.26202187
20.875673 14.010603 0.26202187
20.801146 14.043957 0.26202187
20.723661 14.069702 0.26202187
20.643993 14.087584 0.26202187
20.562939 14.097424 0.26202187
20.481306 14.099121 0.26202187
20.399912 14.092661 0.26202187
20.319569 14.078108 0.26202187
20.241081 14.055605 0.26202187
20.165232 14.02538 0.26202187
20.092777 13.987734 0.26202187
20.024445 13.943042 0.26202187
19.960915 13.891751 0.26202187
19.902824 13.834374 0.26202187
19.85075 13.771485 0.26202187
19.805216 13.703712 0.26202187
19.766674 13.63173 0.26202187
19.735512 13.556261 0.26202187
19.712038 13.478058 0.26202187
19.696491 13.397902 0.26202187
19.689022 13.316593 0.26202187
19.689709 13.234946 0.26202187
19.698544 13.153775 0.26202187
19.715437 13.073893 0.26202187
19.740221 12.996095 0.26202187
19.772648 12.92116 0.26202187
19.812393 12.849836 0.26202187
19.859062 12.782838 0.26202187
19.912186 12.720833 0.26202187
19.971233 12.664441 0.26202187
20.035616 12.614226 0.26202187
20.104691 12.570689 0.26202187
20.177767 12.534266 0.26202187
20.254114 12.505321 0.26202187
20.33297 12.484141 0.26202187
20.413546 12.47094 0.26202187
20.495037 12.465849 0.26202187
20.576628 12.468919 0.26202187
20.657507 12.48012 0.26202187
20.736862 12.499338 0.26202187
20.813904 12.526383 0.26202187
20.887859 12.560985 0.26202187
20.957993 12.602797 0.26202187
21.0236 12.651401 0.26202187
21.084026 12.706311 0.26202187
21.13867 12.766981 0.26202187
21.186985 12.832803 0.26202187
21.228485 12.903119 0.26202187
21.26276 12.977227 0.26202187
21.289463 13.054387 0.26202187
21.308332 13.133827 0.26202187
21.319174 13.214754 0.26202187
21.298893 13.282628 0.18142584
21.294928 13.36187 0.18142584
21.283072 13.440319 0.18142584
21.263441 13.517193 0.18142584
21.236237 13.591723 0.18142584
21.201725 13.663165 0.18142584
21.160255 13.730804 0.18142584
21.11224 13.793966 0.18142584
21.058159 13.852019 0.18142584
20.99855 13.904383 0.18142584
20.934015 13.950534 0.18142584
20.865192 13.990011 0.18142584
20.792774 14.022421 0.18142584
20.71748 14.047439 0.18142584
20.640066 14.064815 0.18142584
20.561304 14.074375 0.18142584
20.481981 14.076025 0.18142584
20.402889 14.069748 0.18142584
20.32482 14.055605 0.18142584
20.24855 14.03374 0.18142584
20.174847 14.00437 0.18142584
20.104443 13.967788 0.18142584
20.038044 13.92436 0.18142584
19.976311 13.87452 0.18142584
19.919863 13.818768 0.18142584
19.869261 13.757657 0.18142584
19.825014 13.6918 0.18142584
19.787563 13.621855 0.18142584
19.757282 13.54852 0.18142584
19.734474 13.472529 0.18142584
19.719366 13.394641 0.18142584
19.712109 13.315633 0.18142584
19.712776 13.236295 0.18142584
19.721359 13.15742 0.18142584
19.737776 13.079797 0.18142584
19.761858 13.0042 0.18142584
19.793367 12.931385 0.18142584
19.831989 12.86208 0.18142584
19.877338 12.796976 0.18142584
19.928959 12.736725 0.18142584
19.986336 12.681928 0.18142584
20.048899 12.633133 0.18142584
20.116018 12.590828 0.18142584
20.187027 12.555435 0.18142584
20.261215 12.527308 0.18142584
20.337839 12.506728 0.18142584
20.416136 12.4939 0.18142584
20.495323 12.488954 0.18142584
20.574606 12.491937 0.18142584
20.653196 12.50282 0.18142584
20.730309 12.521496 0.18142584
20.80517 12.547775 0.18142584
20.877033 12.581398 0.18142584
20.945183 12.622026 0.18142584
21.008934 12.669256 0.18142584
21.067652 12.722614 0.18142584
21.12075 12.781568 0.18142584
21.167698 12.845528 0.18142584
21.208025 12.913855 0.18142584
21.241329 12.985867 0.18142584
21.267279 13.060843 0.18142584
21.285612 13.138037 0.18142584
21.296148 13.216674 0.18142584
21.267857 13.282628 0.10353929
21.264046 13.358771 0.10353929
21.252653 13.434153 0.10353929
21.233791 13.50802 0.10353929
21.207649 13.579637 0.10353929
21.174488 13.648285 0.10353929
21.13464 13.71328 0.10353929
21.088501 13.773972 0.10353929
21.036535 13.829755 0.10353929
20.979258 13.880071 0.10353929
20.917246 13.924417 0.10353929
20.851114 13.962351 0.10353929
20.781527 13.993493 0.10353929
20.709179 14.017532 0.10353929
20.63479 14.034229 0.10353929
20.559109 14.043416 0.10353929
20.482887 14.045001 0.10353929
20.406887 14.038969 0.10353929
20.331871 14.02538 0.10353929
20.258585 14.00437 0.10353929
20.187763 13.976148 0.10353929
20.120111 13.940996 0.10353929
20.056309 13.899267 0.10353929
19.99699 13.851377 0.10353929
19.942749 13.797803 0.10353929
19.894127 13.739082 0.10353929
19.85161 13.6758 0.10353929
19.815622 13.60859 0.10353929
19.786526 13.538123 0.10353929
19.76461 13.465103 0.10353929
19.750092 13.390261 0.10353929
19.743118 13.314342 0.10353929
19.743759 13.238107 0.10353929
19.752008 13.162316 0.10353929
19.767782 13.087729 0.10353929
19.790924 13.015087 0.10353929
19.821201 12.945119 0.10353929
19.858313 12.878524 0.10353929
19.901888 12.815966 0.10353929
19.951488 12.758071 0.10353929
20.006624 12.705417 0.10353929
20.06674 12.65853 0.10353929
20.131235 12.617879 0.10353929
20.199467 12.58387 0.10353929
20.270754 12.556843 0.10353929
20.344383 12.537067 0.10353929
20.419617 12.524742 0.10353929
20.495707 12.519988 0.10353929
20.571892 12.522855 0.10353929
20.647408 12.533313 0.10353929
20.721504 12.551257 0.10353929
20.793438 12.576509 0.10353929
20.862494 12.608818 0.10353929
20.927977 12.647858 0.10353929
20.989235 12.69324 0.10353929
21.045658 12.744512 0.10353929
21.09668 12.80116 0.10353929
21.14179 12.862619 0.10353929
21.18054 12.928274 0.10353929
21.212543 12.997471 0.10353929
21.237476 13.069516 0.10353929
21.255095 13.14369 0.10353929
21.265219 13.219254 0.10353929
21.229198 13.282628 0.029140413
21.22558 13.354912 0.029140413
21.214766 13.426473 0.029140413
21.196859 13.496596 0.029140413
21.172043 13.564583 0.029140413
21.140564 13.629752 0.029140413
21.102734 13.691452 0.029140413
21.058935 13.749068 0.029140413
21.009602 13.802023 0.029140413
20.955229 13.849789 0.029140413
20.896358 13.891888 0.029140413
20.83358 13.927898 0.029140413
20.767519 13.957462 0.029140413
20.698837 13.980284 0.029140413
20.62822 13.996134 0.029140413
20.556374 14.004855 0.029140413
20.484016 14.00636 0.029140413
20.411869 14.000634 0.029140413
20.340654 13.987734 0.029140413
20.271082 13.967788 0.029140413
20.20385 13.940996 0.029140413
20.139627 13.907627 0.029140413
20.079058 13.868012 0.029140413
20.022747 13.822549 0.029140413
19.971254 13.771691 0.029140413
19.925097 13.715946 0.029140413
19.884735 13.655872 0.029140413
19.850573 13.592069 0.029140413
19.82295 13.525173 0.029140413
19.802145 13.455854 0.029140413
19.788363 13.384806 0.029140413
19.781742 13.312735 0.029140413
19.782351 13.240363 0.029140413
19.790182 13.168414 0.029140413
19.805157 13.097607 0.029140413
19.827124 13.028647 0.029140413
19.855867 12.962226 0.029140413
19.891098 12.899006 0.029140413
19.932465 12.839619 0.029140413
19.979551 12.784658 0.029140413
20.031893 12.734673 0.029140413
20.088961 12.690163 0.029140413
20.150188 12.651572 0.029140413
20.214962 12.619287 0.029140413
20.282635 12.59363 0.029140413
20.352531 12.574857 0.029140413
20.423952 12.563155 0.029140413
20.496185 12.558643 0.029140413
20.568508 12.561364 0.029140413
20.640198 12.571292 0.029140413
20.710539 12.588327 0.029140413
20.778828 12.6123 0.029140413
20.844381 12.64297 0.029140413
20.906546 12.680032 0.029140413
20.964699 12.723114 0.029140413
21.018261 12.771787 0.029140413
21.066698 12.825563 0.029140413
21.109522 12.883907 0.029140413
21.146309 12.946235 0.029140413
21.176689 13.011924 0.029140413
21.200359 13.080317 0.029140413
21.217083 13.150733 0.029140413
21.226694 13.222466 0.029140413
21.183306 13.282628 -0.041027516
21.179918 13.35033 -0.041027516
21.169788 13.417356 -0.041027516
21.153017 13.483035 -0.041027516
21.129774 13.546712 -0.041027516
21.100288 13.60775 -0.041027516
21.064857 13.66554 -0.041027516
21.023834 13.719503 -0.041027516
20.977629 13.769102 -0.041027516
20.926701 13.81384 -0.041027516
20.871563 13.853271 -0.041027516
20.812763 13.886999 -0.041027516
20.750891 13.914689 -0.041027516
20.686562 13.936064 -0.041027516
20.62042 13.95091 -0.041027516
20.553127 13.959078 -0.041027516
20.485355 13.960487 -0.041027516
20.417782 13.955124 -0.041027516
20.35108 13.943042 -0.041027516
20.285919 13.92436 -0.041027516
20.222948 13.899267 -0.041027516
20.162796 13.868012 -0.041027516
20.106066 13.830909 -0.041027516
20.053324 13.788327 -0.041027516
20.005095 13.740693 -0.041027516
19.961863 13.688481 -0.041027516
19.924059 13.632215 -0.041027516
19.892061 13.572455 -0.041027516
19.86619 13.5098 -0.041027516
19.846703 13.444875 -0.041027516
19.833796 13.378329 -0.041027516
19.827595 13.310826 -0.041027516
19.828165 13.243042 -0.041027516
19.835499 13.175653 -0.041027516
19.849524 13.109334 -0.041027516
19.8701 13.044745 -0.041027516
19.897022 12.982534 -0.041027516
19.930019 12.923321 -0.041027516
19.968763 12.867698 -0.041027516
20.012867 12.816221 -0.041027516
20.06189 12.769404 -0.041027516
20.115341 12.727715 -0.041027516
20.172688 12.69157 -0.041027516
20.233355 12.661332 -0.041027516
20.29674 12.6373 -0.041027516
20.362206 12.619718 -0.041027516
20.4291 12.608758 -0.041027516
20.496756 12.604531 -0.041027516
20.564493 12.60708 -0.041027516
20.631639 12.616379 -0.041027516
20.697521 12.632334 -0.041027516
20.76148 12.654787 -0.041027516
20.82288 12.683514 -0.041027516
20.881104 12.718225 -0.041027516
20.935572 12.758577 -0.041027516
20.985739 12.804165 -0.041027516
21.031105 12.854534 -0.041027516
21.071217 12.90918 -0.041027516
21.105671 12.967557 -0.041027516
21.134125 13.029082 -0.041027516
21.156296 13.093141 -0.041027516
21.171959 13.159093 -0.041027516
21.180962 13.226278 -0.041027516
21.130638 13.282628 -0.10626331
21.127514 13.345072 -0.10626331
21.11817 13.406892 -0.10626331
21.102703 13.46747 -0.10626331
21.081264 13.526202 -0.10626331
21.05407 13.5825 -0.10626331
21.021389 13.635801 -0.10626331
20.983551 13.685574 -0.10626331
20.940935 13.73132 -0.10626331
20.893963 13.772584 -0.10626331
20.843105 13.808952 -0.10626331
20.788874 13.840061 -0.10626331
20.731806 13.865601 -0.10626331
20.672472 13.885316 -0.10626331
20.611469 13.899008 -0.10626331
20.549402 13.906542 -0.10626331
20.486893 13.907843 -0.10626331
20.424568 13.902896 -0.10626331
20.363047 13.891751 -0.10626331
20.302946 13.87452 -0.10626331
20.244865 13.851377 -0.10626331
20.189386 13.822549 -0.10626331
20.137062 13.788327 -0.10626331
20.088415 13.749052 -0.10626331
20.043932 13.705117 -0.10626331
20.004057 13.656961 -0.10626331
19.969191 13.605064 -0.10626331
19.939678 13.549946 -0.10626331
19.915815 13.492157 -0.10626331
19.897842 13.432274 -0.10626331
19.885937 13.370896 -0.10626331
19.880217 13.308637 -0.10626331
19.880743 13.246117 -0.10626331
19.887508 13.183962 -0.10626331
19.900444 13.122792 -0.10626331
19.919422 13.063221 -0.10626331
19.944252 13.00584 -0.10626331
19.974686 12.951226 -0.10626331
20.010422 12.899923 -0.10626331
20.0511 12.852444 -0.10626331
20.096315 12.809263 -0.10626331
20.145615 12.770812 -0.10626331
20.198507 12.737474 -0.10626331
20.254465 12.709584 -0.10626331
20.312925 12.68742 -0.10626331
20.373308 12.671202 -0.10626331
20.435007 12.661094 -0.10626331
20.497408 12.657195 -0.10626331
20.559885 12.659546 -0.10626331
20.621817 12.668122 -0.10626331
20.682581 12.682838 -0.10626331
20.741573 12.703548 -0.10626331
20.798204 12.730043 -0.10626331
20.851906 12.76206 -0.10626331
20.902145 12.799277 -0.10626331
20.948416 12.841325 -0.10626331
20.990257 12.887781 -0.10626331
21.027254 12.938183 -0.10626331
21.059032 12.992026 -0.10626331
21.085278 13.048774 -0.10626331
21.105724 13.107857 -0.10626331
21.120173 13.168687 -0.10626331
21.128475 13.230655 -0.10626331
21.07172 13.282628 -0.16591516
21.06889 13.33919 -0.16591516
21.060427 13.395186 -0.16591516
21.046417 13.450059 -0.16591516
21.026997 13.503259 -0.16591516
21.002363 13.554253 -0.16591516
20.972763 13.602534 -0.16591516
20.93849 13.647618 -0.16591516
20.899885 13.689055 -0.16591516
20.85734 13.726433 -0.16591516
20.811274 13.759375 -0.16591516
20.762148 13.787554 -0.16591516
20.710457 13.810687 -0.16591516
20.656712 13.828545 -0.16591516
20.601454 13.840948 -0.16591516
20.545235 13.847773 -0.16591516
20.488613 13.84895 -0.16591516
20.432159 13.844469 -0.16591516
20.376432 13.834374 -0.16591516
20.321993 13.818768 -0.16591516
20.269384 13.797803 -0.16591516
20.21913 13.771691 -0.16591516
20.171734 13.740692 -0.16591516
20.12767 13.705117 -0.16591516
20.087378 13.665321 -0.16591516
20.051258 13.6217 -0.16591516
20.019676 13.574693 -0.16591516
19.992943 13.524766 -0.16591516
19.971329 13.472421 -0.16591516
19.955048 13.418179 -0.16591516
19.944263 13.362582 -0.16591516
19.939083 13.306187 -0.16591516
19.93956 13.249556 -0.16591516
19.945688 13.193255 -0.16591516
19.957405 13.137849 -0.16591516
19.974594 13.083888 -0.16591516
19.997086 13.031913 -0.16591516
20.024654 12.982443 -0.16591516
20.057024 12.935972 -0.16591516
20.09387 12.892965 -0.16591516
20.134827 12.853852 -0.16591516
20.179483 12.819022 -0.16591516
20.227392 12.788825 -0.16591516
20.278078 12.763562 -0.16591516
20.331034 12.743485 -0.16591516
20.385727 12.728795 -0.16591516
20.441614 12.719639 -0.16591516
20.498137 12.716108 -0.16591516
20.554729 12.718237 -0.16591516
20.610826 12.726006 -0.16591516
20.665869 12.739336 -0.16591516
20.719305 12.758095 -0.16591516
20.770601 12.782094 -0.16591516
20.819244 12.811095 -0.16591516
20.86475 12.844807 -0.16591516
20.906662 12.882894 -0.16591516
20.944563 12.924974 -0.16591516
20.978075 12.970629 -0.16591516
21.006859 13.0194 -0.16591516
21.030632 13.070802 -0.16591516
21.049154 13.12432 -0.16591516
21.062241 13.17942 -0.16591516
21.069761 13.235551 -0.16591516
21.007143 13.282628 -0.21938714
21.004635 13.332743 -0.21938714
20.997137 13.382358 -0.21938714
20.984722 13.430975 -0.21938714
20.967516 13.47811 -0.21938714
20.94569 13.523293 -0.21938714
20.919464 13.566071 -0.21938714
20.889097 13.606016 -0.21938714
20.854895 13.642731 -0.21938714
20.817196 13.675847 -0.21938714
20.776381 13.705034 -0.21938714
20.732857 13.730001 -0.21938714
20.687056 13.750498 -0.21938714
20.639439 13.76632 -0.21938714
20.590479 13.777309 -0.21938714
20.540667 13.783356 -0.21938714
20.490499 13.784399 -0.21938714
20.440479 13.780429 -0.21938714
20.391106 13.771485 -0.21938714
20.342871 13.757657 -0.21938714
20.296257 13.739082 -0.21938714
20.251732 13.715946 -0.21938714
20.209738 13.688481 -0.21938714
20.170696 13.656961 -0.21938714
20.134996 13.6217 -0.21938714
20.102995 13.583053 -0.21938714
20.075012 13.541403 -0.21938714
20.051327 13.497167 -0.21938714
20.032175 13.450788 -0.21938714
20.017752 13.402728 -0.21938714
20.008196 13.353469 -0.21938714
20.003607 13.303501 -0.21938714
20.004028 13.253325 -0.21938714
20.009457 13.203443 -0.21938714
20.019838 13.15435 -0.21938714
20.03507 13.106541 -0.21938714
20.054998 13.06049 -0.21938714
20.079424 13.016659 -0.21938714
20.108103 12.975485 -0.21938714
20.140749 12.93738 -0.21938714
20.177038 12.902725 -0.21938714
20.216604 12.871865 -0.21938714
20.259052 12.84511 -0.21938714
20.303961 12.822726 -0.21938714
20.35088 12.804938 -0.21938714
20.39934 12.791923 -0.21938714
20.448858 12.78381 -0.21938714
20.498938 12.780682 -0.21938714
20.54908 12.782568 -0.21938714
20.598783 12.789451 -0.21938714
20.647551 12.801262 -0.21938714
20.694895 12.817883 -0.21938714
20.740345 12.839147 -0.21938714
20.783443 12.864841 -0.21938714
20.823763 12.894711 -0.21938714
20.860899 12.928456 -0.21938714
20.89448 12.96574 -0.21938714
20.92417 13.00619 -0.21938714
20.949675 13.049403 -0.21938714
20.970737 13.094946 -0.21938714
20.987148 13.142364 -0.21938714
20.998743 13.191183 -0.21938714
21.005407 13.240916 -0.21938714
20.93755 13.282628 -0.2661449
20.935389 13.325795 -0.2661449
20.92893 13.368531 -0.2661449
20.918236 13.410408 -0.2661449
20.903416 13.451009 -0.2661449
20.884617 13.489927 -0.2661449
20.862026 13.526774 -0.2661449
20.835869 13.561182 -0.2661449
20.806408 13.592807 -0.2661449
20.773935 13.621332 -0.2661449
20.738779 13.646473 -0.2661449
20.701288 13.667978 -0.2661449
20.661839 13.685634 -0.2661449
20.620821 13.699263 -0.2661449
20.57865 13.708728 -0.2661449
20.535744 13.713936 -0.2661449
20.492531 13.714835 -0.2661449
20.449446 13.711415 -0.2661449
20.406918 13.703712 -0.2661449
20.36537 13.6918 -0.2661449
20.325218 13.6758 -0.2661449
20.286867 13.655872 -0.2661449
20.250694 13.632215 -0.2661449
20.217066 13.605064 -0.2661449
20.186316 13.574693 -0.2661449
20.158751 13.541403 -0.2661449
20.134645 13.505527 -0.2661449
20.114244 13.467423 -0.2661449
20.097748 13.427474 -0.2661449
20.085323 13.386078 -0.2661449
20.077093 13.343647 -0.2661449
20.073139 13.300608 -0.2661449
20.073503 13.257388 -0.2661449
20.07818 13.21442 -0.2661449
20.087122 13.172134 -0.2661449
20.100241 13.130953 -0.2661449
20.117407 13.091287 -0.2661449
20.138447 13.053532 -0.2661449
20.163149 13.018066 -0.2661449
20.191271 12.985245 -0.2661449
20.222527 12.955394 -0.2661449
20.256609 12.928812 -0.2661449
20.293173 12.905766 -0.2661449
20.331854 12.886486 -0.2661449
20.372269 12.871163 -0.2661449
20.414011 12.859953 -0.2661449
20.456663 12.852964 -0.2661449
20.4998 12.85027 -0.2661449
20.54299 12.851895 -0.2661449
20.585802 12.857824 -0.2661449
20.62781 12.867997 -0.2661449
20.668591 12.882314 -0.2661449
20.707739 12.900629 -0.2661449
20.744864 12.922762 -0.2661449
20.779593 12.94849 -0.2661449
20.811579 12.977558 -0.2661449
20.840504 13.009673 -0.2661449
20.866079 13.044516 -0.2661449
20.888048 13.081737 -0.2661449
20.906191 13.120966 -0.2661449
20.920326 13.16181 -0.2661449
20.930313 13.203861 -0.2661449
20.936054 13.246699 -0.2661449
20.863634 13.282628 -0.30572131
20.861843 13.318416 -0.30572131
20.856489 13.353847 -0.30572131
20.847624 13.388565 -0.30572131
20.835337 13.422226 -0.30572131
20.81975 13.454491 -0.30572131
20.801022 13.48504 -0.30572131
20.779335 13.513565 -0.30572131
20.754911 13.539783 -0.30572131
20.727991 13.563433 -0.30572131
20.698843 13.584276 -0.30572131
20.667761 13.602105 -0.30572131
20.635054 13.616743 -0.30572131
20.601049 13.628041 -0.30572131
20.566086 13.635889 -0.30572131
20.530516 13.640207 -0.30572131
20.49469 13.640952 -0.30572131
20.458969 13.638117 -0.30572131
20.42371 13.63173 -0.30572131
20.389265 13.621855 -0.30572131
20.355978 13.60859 -0.30572131
20.324183 13.592069 -0.30572131
20.294193 13.572455 -0.30572131
20.266314 13.549946 -0.30572131
20.240818 13.524766 -0.30572131
20.217966 13.497167 -0.30572131
20.197983 13.467423 -0.30572131
20.181068 13.435834 -0.30572131
20.167393 13.402714 -0.30572131
20.157091 13.368394 -0.30572131
20.150269 13.333217 -0.30572131
20.14699 13.297534 -0.30572131
20.147291 13.261703 -0.30572131
20.151169 13.22608 -0.30572131
20.158583 13.191023 -0.30572131
20.169458 13.15688 -0.30572131
20.183689 13.123995 -0.30572131
20.201134 13.092694 -0.30572131
20.221613 13.063292 -0.30572131
20.244926 13.03608 -0.30572131
20.270842 13.011333 -0.30572131
20.299095 12.989295 -0.30572131
20.329411 12.970188 -0.30572131
20.361479 12.954204 -0.30572131
20.394985 12.941501 -0.30572131
20.429592 12.932206 -0.30572131
20.464952 12.926413 -0.30572131
20.500715 12.924178 -0.30572131
20.536524 12.925526 -0.30572131
20.572018 12.930441 -0.30572131
20.606844 12.938875 -0.30572131
20.640654 12.950745 -0.30572131
20.673109 12.965929 -0.30572131
20.703888 12.984279 -0.30572131
20.732679 13.00561 -0.30572131
20.759199 13.029707 -0.30572131
20.78318 13.056333 -0.30572131
20.804382 13.085219 -0.30572131
20.822596 13.116077 -0.30572131
20.837637 13.148601 -0.30572131
20.849356 13.182463 -0.30572131
20.857635 13.217326 -0.30572131
20.862394 13.252841 -0.30572131
20.786139 13.282628 -0.33772084
20.784735 13.310679 -0.33772084
20.780537 13.33845 -0.33772084
20.773588 13.365664 -0.33772084
20.763958 13.392047 -0.33772084
20.751741 13.417337 -0.33772084
20.737061 13.441282 -0.33772084
20.720064 13.463641 -0.33772084
20.700918 13.484192 -0.33772084
20.679817 13.502728 -0.33772084
20.656973 13.519066 -0.33772084
20.632608 13.53304 -0.33772084
20.606974 13.544514 -0.33772084
20.58032 13.55337 -0.33772084
20.552916 13.559521 -0.33772084
20.525034 13.562905 -0.33772084
20.496952 13.563489 -0.33772084
20.468954 13.561267 -0.33772084
20.441319 13.556261 -0.33772084
20.41432 13.54852 -0.33772084
20.388227 13.538123 -0.33772084
20.363306 13.525173 -0.33772084
20.3398 13.5098 -0.33772084
20.317947 13.492157 -0.33772084
20.297964 13.472421 -0.33772084
20.280052 13.450788 -0.33772084
20.264387 13.427474 -0.33772084
20.251131 13.402714 -0.33772084
20.240412 13.376754 -0.33772084
20.232336 13.349853 -0.33772084
20.226988 13.32228 -0.33772084
20.224419 13.294312 -0.33772084
20.224655 13.266226 -0.33772084
20.227694 13.238305 -0.33772084
20.233505 13.210826 -0.33772084
20.242031 13.184065 -0.33772084
20.253185 13.158289 -0.33772084
20.266857 13.133755 -0.33772084
20.282909 13.110708 -0.33772084
20.301184 13.089379 -0.33772084
20.321495 13.069982 -0.33772084
20.343643 13.052708 -0.33772084
20.367403 13.037732 -0.33772084
20.39254 13.025203 -0.33772084
20.418802 13.015246 -0.33772084
20.445927 13.00796 -0.33772084
20.473644 13.00342 -0.33772084
20.501677 13.001669 -0.33772084
20.529743 13.002725 -0.33772084
20.557564 13.006577 -0.33772084
20.58486 13.013188 -0.33772084
20.611361 13.022491 -0.33772084
20.636801 13.034393 -0.33772084
20.660925 13.048777 -0.33772084
20.683493 13.065495 -0.33772084
20.704279 13.084384 -0.33772084
20.723076 13.105253 -0.33772084
20.739695 13.127895 -0.33772084
20.753971 13.152082 -0.33772084
20.76576 13.177575 -0.33772084
20.774946 13.204117 -0.33772084
20.781437 13.231442 -0.33772084
20.785168 13.25928 -0.33772084
20.705835 13.282628 -0.36182383
20.704832 13.302663 -0.36182383
20.701836 13.322496 -0.36182383
20.696873 13.341932 -0.36182383
20.689993 13.360776 -0.36182383
20.681269 13.378838 -0.36182383
20.670784 13.395939 -0.36182383
20.658644 13.411908 -0.36182383
20.64497 13.426585 -0.36182383
20.6299 13.439824 -0.36182383
20.613585 13.451492 -0.36182383
20.596184 13.461473 -0.36182383
20.577875 13.469667 -0.36182383
20.558838 13.475992 -0.36182383
20.539267 13.480386 -0.36182383
20.519352 13.482803 -0.36182383
20.499298 13.48322 -0.36182383
20.479301 13.481633 -0.36182383
20.459562 13.478058 -0.36182383
20.440281 13.472529 -0.36182383
20.421646 13.465103 -0.36182383
20.403847 13.455854 -0.36182383
20.387058 13.444875 -0.36182383
20.37145 13.432274 -0.36182383
20.35718 13.418179 -0.36182383
20.344385 13.402728 -0.36182383
20.333199 13.386078 -0.36182383
20.32373 13.368394 -0.36182383
20.316074 13.349853 -0.36182383
20.310308 13.33064 -0.36182383
20.306488 13.310947 -0.36182383
20.304653 13.290973 -0.36182383
20.304823 13.270914 -0.36182383
20.306992 13.250972 -0.36182383
20.311142 13.231347 -0.36182383
20.317232 13.212234 -0.36182383
20.325197 13.193825 -0.36182383
20.334963 13.176302 -0.36182383
20.346428 13.159842 -0.36182383
20.359478 13.144609 -0.36182383
20.373985 13.130755 -0.36182383
20.389803 13.118419 -0.36182383
20.406773 13.107722 -0.36182383
20.424726 13.098774 -0.36182383
20.443481 13.091663 -0.36182383
20.462854 13.08646 -0.36182383
20.482651 13.083217 -0.36182383
20.50267 13.081966 -0.36182383
20.522717 13.08272 -0.36182383
20.542585 13.085472 -0.36182383
20.562082 13.090194 -0.36182383
20.581009 13.096838 -0.36182383
20.599178 13.105338 -0.36182383
20.616407 13.11561 -0.36182383
20.632526 13.127551 -0.36182383
20.647371 13.141042 -0.36182383
20.660795 13.155947 -0.36182383
20.672665 13.172117 -0.36182383
20.682861 13.189392 -0.36182383
20.69128 13.207599 -0.36182383
20.697842 13.226555 -0.36182383
20.702477 13.246072 -0.36182383
20.705141 13.265953 -0.36182383
20.623526 13.282628 -0.37778941
20.622934 13.294445 -0.37778941
20.621166 13.306145 -0.37778941
20.61824 13.317609 -0.37778941
20.614182 13.328723 -0.37778941
20.609035 13.339377 -0.37778941
20.602852 13.349464 -0.37778941
20.595692 13.358884 -0.37778941
20.587626 13.36754 -0.37778941
20.578737 13.37535 -0.37778941
20.569113 13.382232 -0.37778941
20.558849 13.38812 -0.37778941
20.54805 13.392953 -0.37778941
20.536821 13.396684 -0.37778941
20.525276 13.399275 -0.37778941
20.513531 13.400701 -0.37778941
20.501701 13.400947 -0.37778941
20.489906 13.40001 -0.37778941
20.478264 13.397902 -0.37778941
20.46689 13.394641 -0.37778941
20.455898 13.390261 -0.37778941
20.4454 13.384806 -0.37778941
20.435497 13.378329 -0.37778941
20.426291 13.370896 -0.37778941
20.417873 13.362582 -0.37778941
20.410328 13.353469 -0.37778941
20.403728 13.343647 -0.37778941
20.398144 13.333217 -0.37778941
20.393627 13.32228 -0.37778941
20.390226 13.310947 -0.37778941
20.387974 13.299333 -0.37778941
20.38689 13.28755 -0.37778941
20.38699 13.275719 -0.37778941
20.388271 13.263956 -0.37778941
20.390718 13.25238 -0.37778941
20.39431 13.241106 -0.37778941
20.39901 13.230247 -0.37778941
20.404768 13.219913 -0.37778941
20.411531 13.210203 -0.37778941
20.41923 13.201218 -0.37778941
20.427786 13.193047 -0.37778941
20.437117 13.18577 -0.37778941
20.447126 13.179461 -0.37778941
20.457716 13.174183 -0.37778941
20.468779 13.169988 -0.37778941
20.480206 13.166919 -0.37778941
20.491882 13.165006 -0.37778941
20.503691 13.164268 -0.37778941
20.515514 13.164713 -0.37778941
20.527235 13.166336 -0.37778941
20.538734 13.169121 -0.37778941
20.549898 13.17304 -0.37778941
20.560616 13.178055 -0.37778941
20.570778 13.184114 -0.37778941
20.580286 13.191156 -0.37778941
20.589043 13.199114 -0.37778941
20.59696 13.207906 -0.37778941
20.603962 13.217443 -0.37778941
20.609976 13.227633 -0.37778941
20.614943 13.238373 -0.37778941
20.618813 13.249554 -0.37778941
20.621546 13.261065 -0.37778941
20.623117 13.272793 -0.37778941
20.540035 13.282628 -0.38545814
20.539862 13.28611 -0.38545814
20.539339 13.289557 -0.38545814
20.538477 13.292935 -0.38545814
20.537281 13.29621 -0.38545814
20.535765 13.299349 -0.38545814
20.533943 13.302321 -0.38545814
20.531834 13.305097 -0.38545814
20.529457 13.307648 -0.38545814
20.526838 13.309949 -0.38545814
20.524002 13.311976 -0.38545814
20.520977 13.313711 -0.38545814
20.517796 13.315135 -0.38545814
20.514486 13.316235 -0.38545814
20.511086 13.316998 -0.38545814
20.507624 13.317418 -0.38545814
20.504139 13.317491 -0.38545814
20.500664 13.317215 -0.38545814
20.497232 13.316593 -0.38545814
20.493881 13.315633 -0.38545814
20.490643 13.314342 -0.38545814
20.487549 13.312735 -0.38545814
20.484632 13.310826 -0.38545814
20.48192 13.308637 -0.38545814
20.479439 13.306187 -0.38545814
20.477215 13.303501 -0.38545814
20.475271 13.300608 -0.38545814
20.473625 13.297534 -0.38545814
20.472296 13.294312 -0.38545814
20.471292 13.290973 -0.38545814
20.470629 13.28755 -0.38545814
20.47031 13.284079 -0.38545814
20.470339 13.280592 -0.38545814
20.470716 13.277126 -0.38545814
20.471437 13.273715 -0.38545814
20.472496 13.270393 -0.38545814
20.473881 13.267194 -0.38545814
20.475578 13.264149 -0.38545814
20.47757 13.261288 -0.38545814
20.479839 13.25864 -0.38545814
20.482361 13.256232 -0.38545814
20.485109 13.254088 -0.38545814
20.488058 13.25223 -0.38545814
20.491179 13.250674 -0.38545814
20.494438 13.249438 -0.38545814
20.497805 13.248534 -0.38545814
20.501245 13.247971 -0.38545814
20.504725 13.247753 -0.38545814
20.508209 13.247884 -0.38545814
20.511663 13.248363 -0.38545814
20.515051 13.249183 -0.38545814
20.518341 13.250338 -0.38545814
20.521498 13.251815 -0.38545814
20.524492 13.2536 -0.38545814
20.527294 13.255676 -0.38545814
20.529875 13.25802 -0.38545814
20.532207 13.260611 -0.38545814
20.534269 13.263421 -0.38545814
20.536043 13.266424 -0.38545814
20.537506 13.269588 -0.38545814
20.538647 13.272882 -0.38545814
20.539452 13.276275 -0.38545814
20.539915 13.27973 -0.38545814
3.545429 3.1958716 1.0326638
3.545429 3.1958716 1.1326638
3.545429 3.1958716 1.2326639
3.545429 3.1958716 1.3326639
3.545429 3.1958716 1.4326639
3.545429 3.1958716 1.5326639
3.545429 3.1958716 1.632664
3.545429 3.1958716 1.732664
3.545429 3.1958716 1.832664
3.545429 3.1958716 1.932664
3.545429 3.1958716 2.0326641
3.545429 3.1958716 2.132664
3.545429 3.1958716 2.2326639
3.545429 3.1958716 2.3326638
3.545429 3.2958715 1.0326638
3.545429 3.2958715 1.1326638
3.545429 3.2958715 1.2326639
3.545429 3.2958715 1.3326639
3.545429 3.2958715 1.4326639
3.545429 3.2958715 1.5326639
3.545429 3.2958715 1.632664
3.545429 3.2958715 1.732664
3.545429 3.2958715 1.832664
3.545429 3.2958715 1.932664
3.545429 3.2958715 2.0326641
3.545429 3.2958715 2.132664
3.545429 3.2958715 2.2326639
3.545429 3.2958715 2.3326638
3.545429 3.3958714 1.0326638
3.545429 3.3958714 1.1326638
3.545429 3.3958714 1.2326639
3.545429 3.3958714 1.3326639
3.545429 3.3958714 1.4326639
3.545429 3.3958714 1.5326639
3.545429 3.3958714 1.632664
3.545429 3.3958714 1.732664
3.545429 3.3958714 1.832664
3.545429 3.3958714 1.932664
3.545429 3.3958714 2.0326641
3.545429 3.3958714 2.132664
3.545429 3.3958714 2.2326639
3.545429 3.3958714 2.3326638
3.545429 3.4958713 1.0326638
3.545429 3.4958713 1.1326638
3.545429 3.4958713 1.2326639
3.545429 3.4958713 1.3326639
3.545429 3.4958713 1.4326639
3.545429 3.4958713 1.5326639
3.545429 3.4958713 1.632664
3.545429 3.4958713 1.732664
3.545429 3.4958713 1.832664
3.545429 3.4958713 1.932664
3.545429 3.4958713 2.0326641
3.545429 3.4958713 2.132664
3.545429 3.4958713 2.2326639
3.545429 3.4958713 2.3326638
3.545429 3.5958712 1.0326638
3.545429 3.5958712 1.1326638
3.545429 3.5958712 1.2326639
3.545429 3.5958712 1.3326639
3.545429 3.5958712 1.4326639
3.545429 3.5958712 1.5326639
3.545429 3.5958712 1.632664
3.545429 3.5958712 1.732664
3.545429 3.5958712 1.832664
3.545429 3.5958712 1.932664
3.545429 3.5958712 2.0326641
3.545429 3.5958712 2.132664
3.545429 3.5958712 2.2326639
3.545429 3.5958712 2.3326638
3.545429 3.6958711 1.0326638
3.545429 3.6958711 1.1326638
3.545429 3.6958711 1.2326639
3.545429 3.6958711 1.3326639
3.545429 3.6958711 1.4326639
3.545429 3.6958711 1.5326639
3.545429 3.6958711 1.632664
3.545429 3.6958711 1.732664
3.545429 3.6958711 1.832664
3.545429 3.6958711 1.932664
3.545429 3.6958711 2.0326641
3.545429 3.6958711 2.132664
3.545429 3.6958711 2.2326639
3.545429 3.6958711 2.3326638
3.545429 3.795871 1.0326638
3.545429 3.795871 1.1326638
3.545429 3.795871 1.2326639
3.545429 3.795871 1.3326639
3.545429 3.795871 1.4326639
3.545429 3.795871 1.5326639
3.545429 3.795871 1.632664
3.545429 3.795871 1.732664
3.545429 3.795871 1.832664
3.545429 3.795871 1.932664
3.545429 3.795871 2.0326641
3.545429 3.795871 2.132664
3.545429 3.795871 2.2326639
3.545429 3.795871 2.3326638
3.545429 3.8958709 1.0326638
3.545429 3.8958709 1.1326638
3.545429 3.8958709 1.2326639
3.545429 3.8958709 1.3326639
3.545429 3.8958709 1.4326639
3.545429 3.8958709 1.5326639
3.545429 3.8958709 1.632664
3.545429 3.8958709 1.732664
3.545429 3.8958709 1.832664
3.545429 3.8958709 1.932664
3.545429 3.8958709 2.0326641
3.545429 3.8958709 2.132664
3.545429 3.8958709 2.2326639
3.545429 3.8958709 2.3326638
3.545429 3.9958708 1.0326638
3.545429 3.9958708 1.1326638
3.545429 3.9958708 1.2326639
3.545429 3.9958708 1.3326639
3.545429 3.9958708 1.4326639
3.545429 3.9958708 1.5326639
3.545429 3.9958708 1.632664
3.545429 3.9958708 1.732664
3.545429 3.9958708 1.832664
3.545429 3.9958708 1.932664
3.545429 3.9958708 2.0326641
3.545429 3.9958708 2.132664
3.545429 3.9958708 2.2326639
3.545429 3.9958708 2.3326638
3.6454289 3.1958716 1.0326638
3.6454289 3.1958716 1.1326638
3.6454289 3.1958716 1.2326639
3.6454289 3.1958716 1.3326639
3.6454289 3.1958716 1.4326639
3.6454289 3.1958716 1.5326639
3.6454289 3.1958716 1.632664
3.6454289 3.1958716 1.732664
3.6454289 3.1958716 1.832664
3.6454289 3.1958716 1.932664
3.6454289 3.1958716 2.0326641
3.6454289 3.1958716 2.132664
3.6454289 3.1958716 2.2326639
3.6454289 3.1958716 2.3326638
3.6454289 3.2958715 1.0326638
3.6454289 3.2958715 1.1326638
3.6454289 3.2958715 1.2326639
3.6454289 3.2958715 1.3326639
3.6454289 3.2958715 1.4326639
3.6454289 3.2958715 1.5326639
3.6454289 3.2958715 1.632664
3.6454289 3.2958715 1.732664
3.6454289 3.2958715 1.832664
3.6454289 3.2958715 1.932664
3.6454289 3.2958715 2.0326641
3.6454289 3.2958715 2.132664
3.6454289 3.2958715 2.2326639
3.6454289 3.2958715 2.3326638
3.6454289 3.3958714 1.0326638
3.6454289 3.3958714 1.1326638
3.6454289 3.3958714 1.2326639
3.6454289 3.3958714 1.3326639
3.6454289 3.3958714 1.4326639
3.6454289 3.3958714 1.5326639
3.6454289 3.3958714 1.632664
3.6454289 3.3958714 1.732664
3.6454289 3.3958714 1.832664
3.6454289 3.3958714 1.932664
3.6454289 3.3958714 2.0326641
3.6454289 3.3958714 2.132664
3.6454289 3.3958714 2.2326639
3.6454289 3.3958714 2.3326638
3.6454289 3.4958713 1.0326638
3.6454289 3.4958713 1.1326638
3.6454289 3.4958713 1.2326639
3.6454289 3.4958713 1.3326639
3.6454289 3.4958713 1.4326639
3.6454289 3.4958713 1.5326639
3.6454289 3.4958713 1.632664
3.6454289 3.4958713 1.732664
3.6454289 3.4958713 1.832664
3.6454289 3.4958713 1.932664
3.6454289 3.4958713 2.0326641
3.6454289 3.4958713 2.132664
3.6454289 3.4958713 2.2326639
3.6454289 3.4958713 2.3326638
3.6454289 3.5958712 1.0326638
3.6454289 3.5958712 1.1326638
3.6454289 3.5958712 1.2326639
3.6454289 3.5958712 1.3326639
3.6454289 3.5958712 1.4326639
3.6454289 3.5958712 1.5326639
3.6454289 3.5958712 1.632664
3.6454289 3.5958712 1.732664
3.6454289 3.5958712 1.832664
3.6454289 3.5958712 1.932664
3.6454289 3.5958712 2.0326641
3.6454289 3.5958712 2.132664
3.6454289 3.5958712 2.2326639
3.6454289 3.5958712 2.3326638
3.6454289 3.6958711 1.0326638
3.6454289 3.6958711 1.1326638
3.6454289 3.6958711 1.2326639
3.6454289 3.6958711 1.3326639
3.6454289 3.6958711 1.4326639
3.6454289 3.6958711 1.5326639
3.6454289 3.6958711 1.632664
3.6454289 3.6958711 1.732664
3.6454289 3.6958711 1.832664
3.6454289 3.6958711 1.932664
3.6454289 3.6958711 2.0326641
3.6454289 3.6958711 2.132664
3.6454289 3.6958711 2.2326639
3.6454289 3.6958711 2.3326638
3.6454289 3.795871 1.0326638
3.6454289 3.795871 1.1326638
3.6454289 3.795871 1.2326639
3.6454289 3.795871 1.3326639
3.6454289 3.795871 1.4326639
3.6454289 3.795871 1.5326639
3.6454289 3.795871 1.632664
3.6454289 3.795871 1.732664
3.6454289 3.795871 1.832664
3.6454289 3.795871 1.932664
3.6454289 3.795871 2.0326641
3.6454289 3.795871 2.132664
3.6454289 3.795871 2.2326639
3.6454289 3.795871 2.3326638
3.6454289 3.8958709 1.0326638
3.6454289 3.8958709 1.1326638
3.6454289 3.8958709 1.2326639
3.6454289 3.8958709 1.3326639
3.6454289 3.8958709 1.4326639
3.6454289 3.8958709 1.5326639
3.6454289 3.8958709 1.632664
3.6454289 3.8958709 1.732664
3.6454289 3.8958709 1.832664
3.6454289 3.8958709 1.932664
3.6454289 3.8958709 2.0326641
3.6454289 3.8958709 2.132664
3.6454289 3.8958709 2.2326639
3.6454289 3.8958709 2.3326638
3.6454289 3.9958708 1.0326638
3.6454289 3.9958708 1.1326638
3.6454289 3.9958708 1.2326639
3.6454289 3.9958708 1.3326639
3.6454289 3.9958708 1.4326639
3.6454289 3.9958708 1.5326639
3.6454289 3.9958708 1.632664
3.6454289 3.9958708 1.732664
3.6454289 3.9958708 1.832664
3.6454289 3.9958708 1.932664
3.6454289 3.9958708 2.0326641
3.6454289 3.9958708 2.132664
3.6454289 3.9958708 2.2326639
3.6454289 3.9958708 2.3326638
3.7454288 3.1958716 1.0326638
3.7454288 3.1958716 1.1326638
3.7454288 3.1958716 1.2326639
3.7454288 3.1958716 1.3326639
3.7454288 3.1958716 1.4326639
3.7454288 3.1958716 1.5326639
3.7454288 3.1958716 1.632664
3.7454288 3.1958716 1.732664
3.7454288 3.1958716 1.832664
3.7454288 3.1958716 1.932664
3.7454288 3.1958716 2.0326641
3.7454288 3.1958716 2.132664
3.7454288 3.1958716 2.2326639
3.7454288 3.1958716 2.3326638
3.7454288 3.2958715 1.0326638
3.7454288 3.2958715 1.1326638
3.7454288 3.2958715 1.2326639
3.7454288 3.2958715 1.3326639
3.7454288 3.2958715 1.4326639
3.7454288 3.2958715 1.5326639
3.7454288 3.2958715 1.632664
3.7454288 3.2958715 1.732664
3.7454288 3.2958715 1.832664
3.7454288 3.2958715 1.932664
3.7454288 3.2958715 2.0326641
3.7454288 3.2958715 2.132664
3.7454288 3.2958715 2.2326639
3.7454288 3.2958715 2.3326638
3.7454288 3.3958714 1.0326638
3.7454288 3.3958714 1.1326638
3.7454288 3.3958714 1.2326639
3.7454288 3.3958714 1.3326639
3.7454288 3.3958714 1.4326639
3.7454288 3.3958714 1.5326639
3.7454288 3.3958714 1.632664
3.7454288 3.3958714 1.732664
3.7454288 3.3958714 1.832664
3.7454288 3.3958714 1.932664
3.7454288 3.3958714 2.0326641
3.7454288 3.3958714 2.132664
3.7454288 3.3958714 2.2326639
3.7454288 3.3958714 2.3326638
3.7454288 3.4958713 1.0326638
3.7454288 3.4958713 1.1326638
3.7454288 3.4958713 1.2326639
3.7454288 3.4958713 1.3326639
3.7454288 3.4958713 1.4326639
3.7454288 3.4958713 1.5326639
3.7454288 3.4958713 1.632664
3.7454288 3.4958713 1.732664
3.7454288 3.4958713 1.832664
3.7454288 3.4958713 1.932664
3.7454288 3.4958713 2.0326641
3.7454288 3.4958713 2.132664
3.7454288 3.4958713 2.2326639
3.7454288 3.4958713 2.3326638
3.7454288 3.5958712 1.0326638
3.7454288 3.5958712 1.1326638
3.7454288 3.5958712 1.2326639
3.7454288 3.5958712 1.3326639
3.7454288 3.5958712 1.4326639
3.7454288 3.5958712 1.5326639
3.7454288 3.5958712 1.632664
3.7454288 3.5958712 1.732664
3.7454288 3.5958712 1.832664
3.7454288 3.5958712 1.932664
3.7454288 3.5958712 2.0326641
3.7454288 3.5958712 2.132664
3.7454288 3.5958712 2.2326639
3.7454288 3.5958712 2.3326638
3.7454288 3.6958711 1.0326638
3.7454288 3.6958711 1.1326638
3.7454288 3.6958711 1.2326639
3.7454288 3.6958711 1.3326639
3.7454288 3.6958711 1.4326639
3.7454288 3.6958711 1.5326639
3.7454288 3.6958711 1.632664
3.7454288 3.6958711 1.732664
3.7454288 3.6958711 1.832664
3.7454288 3.6958711 1.932664
3.7454288 3.6958711 2.0326641
3.7454288 3.6958711 2.132664
3.7454288 3.6958711 2.2326639
3.7454288 3.6958711 2.3326638
3.7454288 3.795871 1.0326638
3.7454288 3.795871 1.1326638
3.7454288 3.795871 1.2326639
3.7454288 3.795871 1.3326639
3.7454288 3.795871 1.4326639
3.7454288 3.795871 1.5326639
3.7454288 3.795871 1.632664
3.7454288 3.795871 1.732664
3.7454288 3.795871 1.832664
3.7454288 3.795871 1.932664
3.7454288 3.795871 2.0326641
3.7454288 3.795871 2.132664
3.7454288 3.795871 2.2326639
3.7454288 3.795871 2.3326638
3.7454288 3.8958709 1.0326638
3.7454288 3.8958709 1.1326638
3.7454288 3.8958709 1.2326639
3.7454288 3.8958709 1.3326639
