# .PCD v0.7 - Point Cloud Data file format
VERSION 0.7
FIELDS x y z
SIZE 4 4 4
TYPE F F F
COUNT 1 1 1
WIDTH 1549
HEIGHT 1
VIEWPOINT 0 0 0 1 0 0 0
POINTS 1549
DATA ascii
4.3882804 -10.611729 0.19173333
4.3882804 -10.611729 0.29173332
4.3882804 -10.611729 0.39173332
4.3882804 -10.611729 0.49173331
4.3882804 -10.611729 0.59173334
4.3882804 -10.611729 0.69173336
4.3882804 -10.611729 0.79173338
4.3882804 -10.611729 0.89173341
4.3882804 -10.611729 0.99173343
4.3882804 -10.611729 1.0917335
4.3882804 -10.611729 1.1917335
4.3882804 -10.611729 1.2917335
4.3882804 -10.611729 1.3917335
4.3882804 -10.611729 1.4917336
4.3882804 -10.611729 1.5917336
4.3882804 -10.611729 1.6917336
4.3882804 -10.511728 0.091733336
4.3882804 -10.511728 0.19173333
4.3882804 -10.511728 0.29173332
4.3882804 -10.511728 0.39173332
4.3882804 -10.511728 0.49173331
4.3882804 -10.511728 0.59173334
4.3882804 -10.511728 0.69173336
4.3882804 -10.511728 0.79173338
4.3882804 -10.511728 0.89173341
4.3882804 -10.511728 0.99173343
4.3882804 -10.511728 1.0917335
4.3882804 -10.511728 1.1917335
4.3882804 -10.511728 1.2917335
4.3882804 -10.511728 1.3917335
4.3882804 -10.511728 1.4917336
4.3882804 -10.511728 1.5917336
4.3882804 -10.511728 1.6917336
2.6854489 -14.753094 0.9509871
2.6854489 -14.753094 1.0509871
2.6854489 -14.753094 1.1509871
2.6854489 -14.753094 1.2509872
2.6854489 -14.753094 1.3509872
2.6854489 -14.753094 1.4509872
2.6854489 -14.753094 1.5509872
2.6854489 -14.753094 1.6509873
2.6854489 -14.753094 1.7509873
2.6854489 -14.753094 1.8509873
2.6854489 -14.753094 1.9509873
2.6854489 -14.753094 2.0509872
2.6854489 -14.753094 2.1509871
2.6854489 -14.753094 2.2509871
2.6854489 -14.753094 2.350987
2.6854489 -14.753094 2.4509869
2.6854489 -14.753094 2.5509868
2.6854489 -14.753094 2.6509867
2.6854489 -14.753094 2.7509866
2.6854489 -14.653093 0.9509871
2.6854489 -14.653093 1.0509871
2.6854489 -14.653093 1.1509871
2.6854489 -14.653093 1.2509872
2.6854489 -14.653093 1.3509872
2.6854489 -14.653093 1.4509872
2.6854489 -14.653093 1.5509872
2.6854489 -14.653093 1.6509873
2.6854489 -14.653093 1.7509873
2.6854489 -14.653093 1.8509873
2.6854489 -14.653093 1.9509873
2.6854489 -14.653093 2.0509872
2.6854489 -14.653093 2.1509871
2.6854489 -14.653093 2.2509871
2.6854489 -14.653093 2.350987
2.6854489 -14.653093 2.4509869
2.6854489 -14.653093 2.5509868
2.6854489 -14.653093 2.6509867
2.6854489 -14.653093 2.7509866
2.6854489 -14.553093 0.9509871
2.6854489 -14.553093 1.0509871
2.6854489 -14.553093 1.1509871
2.6854489 -14.553093 1.2509872
2.6854489 -14.553093 1.3509872
2.6854489 -14.553093 1.4509872
2.6854489 -14.553093 1.5509872
2.6854489 -14.553093 1.6509873
2.6854489 -14.553093 1.7509873
2.6854489 -14.553093 1.8509873
2.6854489 -14.553093 1.9509873
2.6854489 -14.553093 2.0509872
2.6854489 -14.553093 2.1509871
2.6854489 -14.553093 2.2509871
2.6854489 -14.553093 2.350987
2.6854489 -14.553093 2.4509869
2.6854489 -14.553093 2.5509868
2.6854489 -14.553093 2.6509867
2.6854489 -14.553093 2.7509866
2.6854489 -14.453093 0.9509871
2.6854489 -14.453093 1.0509871
2.6854489 -14.453093 1.1509871
2.6854489 -14.453093 1.2509872
2.6854489 -14.453093 1.3509872
2.6854489 -14.453093 1.4509872
2.6854489 -14.453093 1.5509872
2.6854489 -14.453093 1.6509873
2.6854489 -14.453093 1.7509873
2.6854489 -14.453093 1.8509873
2.6854489 -14.453093 1.9509873
2.6854489 -14.453093 2.0509872
2.6854489 -14.453093 2.1509871
2.6854489 -14.453093 2.2509871
2.6854489 -14.453093 2.350987
2.6854489 -14.453093 2.4509869
2.6854489 -14.453093 2.5509868
2.6854489 -14.453093 2.6509867
2.6854489 -14.453093 2.7509866
2.6854489 -14.353092 0.9509871
2.6854489 -14.353092 1.0509871
2.6854489 -14.353092 1.1509871
2.6854489 -14.353092 1.2509872
2.6854489 -14.353092 1.3509872
2.6854489 -14.353092 1.4509872
2.6854489 -14.353092 1.5509872
2.6854489 -14.353092 1.6509873
2.6854489 -14.353092 1.7509873
2.6854489 -14.353092 1.8509873
2.6854489 -14.353092 1.9509873
2.6854489 -14.353092 2.0509872
2.6854489 -14.353092 2.1509871
2.6854489 -14.353092 2.2509871
2.6854489 -14.353092 2.350987
2.6854489 -14.353092 2.4509869
2.6854489 -14.353092 2.5509868
2.6854489 -14.353092 2.6509867
2.6854489 -14.353092 2.7509866
2.6854489 -14.253092 0.9509871
2.6854489 -14.253092 1.0509871
2.6854489 -14.253092 1.1509871
2.6854489 -14.253092 1.2509872
2.6854489 -14.253092 1.3509872
2.6854489 -14.253092 1.4509872
2.6854489 -14.253092 1.5509872
2.6854489 -14.253092 1.6509873
2.6854489 -14.253092 1.7509873
2.6854489 -14.253092 1.8509873
2.6854489 -14.253092 1.9509873
2.6854489 -14.253092 2.0509872
2.6854489 -14.253092 2.1509871
2.6854489 -14.253092 2.2509871
2.6854489 -14.253092 2.350987
2.6854489 -14.253092 2.4509869
2.6854489 -14.253092 2.5509868
2.6854489 -14.253092 2.6509867
2.6854489 -14.253092 2.7509866
2.6854489 -14.153091 0.9509871
2.6854489 -14.153091 1.0509871
2.6854489 -14.153091 1.1509871
2.6854489 -14.153091 1.2509872
2.6854489 -14.153091 1.3509872
2.6854489 -14.153091 1.4509872
2.6854489 -14.153091 1.5509872
2.6854489 -14.153091 1.6509873
2.6854489 -14.153091 1.7509873
2.6854489 -14.153091 1.8509873
2.6854489 -14.153091 1.9509873
2.6854489 -14.153091 2.0509872
2.6854489 -14.153091 2.1509871
2.6854489 -14.153091 2.2509871
2.6854489 -14.153091 2.350987
2.6854489 -14.153091 2.4509869
2.6854489 -14.153091 2.5509868
2.6854489 -14.153091 2.6509867
2.6854489 -14.153091 2.7509866
2.6854489 -14.053091 0.9509871
2.6854489 -14.053091 1.0509871
2.6854489 -14.053091 1.1509871
2.6854489 -14.053091 1.2509872
2.6854489 -14.053091 1.3509872
2.6854489 -14.053091 1.4509872
2.6854489 -14.053091 1.5509872
2.6854489 -14.053091 1.6509873
2.6854489 -14.053091 1.7509873
2.6854489 -14.053091 1.8509873
2.6854489 -14.053091 1.9509873
2.6854489 -14.053091 2.0509872
2.6854489 -14.053091 2.1509871
2.6854489 -14.053091 2.2509871
2.6854489 -14.053091 2.350987
2.6854489 -14.053091 2.4509869
2.6854489 -14.053091 2.5509868
2.6854489 -14.053091 2.6509867
2.6854489 -14.053091 2.7509866
2.6854489 -13.953091 0.9509871
2.6854489 -13.953091 1.0509871
2.6854489 -13.953091 1.1509871
2.6854489 -13.953091 1.2509872
2.6854489 -13.953091 1.3509872
2.6854489 -13.953091 1.4509872
2.6854489 -13.953091 1.5509872
2.6854489 -13.953091 1.6509873
2.6854489 -13.953091 1.7509873
2.6854489 -13.953091 1.8509873
2.6854489 -13.953091 1.9509873
2.6854489 -13.953091 2.0509872
2.6854489 -13.953091 2.1509871
2.6854489 -13.953091 2.2509871
2.6854489 -13.953091 2.350987
2.6854489 -13.953091 2.4509869
2.6854489 -13.953091 2.5509868
2.6854489 -13.953091 2.6509867
2.6854489 -13.953091 2.7509866
2.6854489 -13.85309 0.9509871
2.6854489 -13.85309 1.0509871
2.6854489 -13.85309 1.1509871
2.6854489 -13.85309 1.2509872
2.6854489 -13.85309 1.3509872
2.6854489 -13.85309 1.4509872
2.6854489 -13.85309 1.5509872
2.6854489 -13.85309 1.6509873
2.6854489 -13.85309 1.7509873
2.6854489 -13.85309 1.8509873
2.6854489 -13.85309 1.9509873
2.6854489 -13.85309 2.0509872
2.6854489 -13.85309 2.1509871
2.6854489 -13.85309 2.2509871
2.6854489 -13.85309 2.350987
2.6854489 -13.85309 2.4509869
2.6854489 -13.85309 2.5509868
2.6854489 -13.85309 2.6509867
2.6854489 -13.85309 2.7509866
2.7854488 -14.753094 0.9509871
2.7854488 -14.753094 1.0509871
2.7854488 -14.753094 1.1509871
2.7854488 -14.753094 1.2509872
2.7854488 -14.753094 1.3509872
2.7854488 -14.753094 1.4509872
2.7854488 -14.753094 1.5509872
2.7854488 -14.753094 1.6509873
2.7854488 -14.753094 1.7509873
2.7854488 -14.753094 1.8509873
2.7854488 -14.753094 1.9509873
2.7854488 -14.753094 2.0509872
2.7854488 -14.753094 2.1509871
2.7854488 -14.753094 2.2509871
2.7854488 -14.753094 2.350987
2.7854488 -14.753094 2.4509869
2.7854488 -14.753094 2.5509868
2.7854488 -14.753094 2.6509867
2.7854488 -14.753094 2.7509866
2.7854488 -14.653093 0.9509871
2.7854488 -14.653093 1.0509871
2.7854488 -14.653093 1.1509871
2.7854488 -14.653093 1.2509872
2.7854488 -14.653093 1.3509872
2.7854488 -14.653093 1.4509872
2.7854488 -14.653093 1.5509872
2.7854488 -14.653093 1.6509873
2.7854488 -14.653093 1.7509873
2.7854488 -14.653093 1.8509873
2.7854488 -14.653093 1.9509873
2.7854488 -14.653093 2.0509872
2.7854488 -14.653093 2.1509871
2.7854488 -14.653093 2.2509871
2.7854488 -14.653093 2.350987
2.7854488 -14.653093 2.4509869
2.7854488 -14.653093 2.5509868
2.7854488 -14.653093 2.6509867
2.7854488 -14.653093 2.7509866
2.7854488 -14.553093 0.9509871
2.7854488 -14.553093 1.0509871
2.7854488 -14.553093 1.1509871
2.7854488 -14.553093 1.2509872
2.7854488 -14.553093 1.3509872
2.7854488 -14.553093 1.4509872
2.7854488 -14.553093 1.5509872
2.7854488 -14.553093 1.6509873
2.7854488 -14.553093 1.7509873
2.7854488 -14.553093 1.8509873
2.7854488 -14.553093 1.9509873
2.7854488 -14.553093 2.0509872
2.7854488 -14.553093 2.1509871
2.7854488 -14.553093 2.2509871
2.7854488 -14.553093 2.350987
2.7854488 -14.553093 2.4509869
2.7854488 -14.553093 2.5509868
2.7854488 -14.553093 2.6509867
2.7854488 -14.553093 2.7509866
2.7854488 -14.453093 0.9509871
2.7854488 -14.453093 1.0509871
2.7854488 -14.453093 1.1509871
2.7854488 -14.453093 1.2509872
2.7854488 -14.453093 1.3509872
2.7854488 -14.453093 1.4509872
2.7854488 -14.453093 1.5509872
2.7854488 -14.453093 1.6509873
2.7854488 -14.453093 1.7509873
2.7854488 -14.453093 1.8509873
2.7854488 -14.453093 1.9509873
2.7854488 -14.453093 2.0509872
2.7854488 -14.453093 2.1509871
2.7854488 -14.453093 2.2509871
2.7854488 -14.453093 2.350987
2.7854488 -14.453093 2.4509869
2.7854488 -14.453093 2.5509868
2.7854488 -14.453093 2.6509867
2.7854488 -14.453093 2.7509866
2.7854488 -14.353092 0.9509871
2.7854488 -14.353092 1.0509871
2.7854488 -14.353092 1.1509871
2.7854488 -14.353092 1.2509872
2.7854488 -14.353092 1.3509872
2.7854488 -14.353092 1.4509872
2.7854488 -14.353092 1.5509872
2.7854488 -14.353092 1.6509873
2.7854488 -14.353092 1.7509873
2.7854488 -14.353092 1.8509873
2.7854488 -14.353092 1.9509873
2.7854488 -14.353092 2.0509872
2.7854488 -14.353092 2.1509871
2.7854488 -14.353092 2.2509871
2.7854488 -14.353092 2.350987
2.7854488 -14.353092 2.4509869
2.7854488 -14.353092 2.5509868
2.7854488 -14.353092 2.6509867
2.7854488 -14.353092 2.7509866
2.7854488 -14.253092 0.9509871
2.7854488 -14.253092 1.0509871
2.7854488 -14.253092 1.1509871
2.7854488 -14.253092 1.2509872
2.7854488 -14.253092 1.3509872
2.7854488 -14.253092 1.4509872
2.7854488 -14.253092 1.5509872
2.7854488 -14.253092 1.6509873
2.7854488 -14.253092 1.7509873
2.7854488 -14.253092 1.8509873
2.7854488 -14.253092 1.9509873
2.7854488 -14.253092 2.0509872
2.7854488 -14.253092 2.1509871
2.7854488 -14.253092 2.2509871
2.7854488 -14.253092 2.350987
2.7854488 -14.253092 2.4509869
2.7854488 -14.253092 2.5509868
2.7854488 -14.253092 2.6509867
2.7854488 -14.253092 2.7509866
2.7854488 -14.153091 0.9509871
2.7854488 -14.153091 1.0509871
2.7854488 -14.153091 1.1509871
2.7854488 -14.153091 1.2509872
2.7854488 -14.153091 1.3509872
2.7854488 -14.153091 1.4509872
2.7854488 -14.153091 1.5509872
2.7854488 -14.153091 1.6509873
2.7854488 -14.153091 1.7509873
2.7854488 -14.153091 1.8509873
2.7854488 -14.153091 1.9509873
2.7854488 -14.153091 2.0509872
2.7854488 -14.153091 2.1509871
2.7854488 -14.153091 2.2509871
2.7854488 -14.153091 2.350987
2.7854488 -14.153091 2.4509869
2.7854488 -14.153091 2.5509868
2.7854488 -14.153091 2.6509867
2.7854488 -14.153091 2.7509866
2.7854488 -14.053091 0.9509871
2.7854488 -14.053091 1.0509871
2.7854488 -14.053091 1.1509871
2.7854488 -14.053091 1.2509872
2.7854488 -14.053091 1.3509872
2.7854488 -14.053091 1.4509872
2.7854488 -14.053091 1.5509872
2.7854488 -14.053091 1.6509873
2.7854488 -14.053091 1.7509873
2.7854488 -14.053091 1.8509873
2.7854488 -14.053091 1.9509873
2.7854488 -14.053091 2.0509872
2.7854488 -14.053091 2.1509871
2.7854488 -14.053091 2.2509871
2.7854488 -14.053091 2.350987
2.7854488 -14.053091 2.4509869
2.7854488 -14.053091 2.5509868
2.7854488 -14.053091 2.6509867
2.7854488 -14.053091 2.7509866
2.7854488 -13.953091 0.9509871
2.7854488 -13.953091 1.0509871
2.7854488 -13.953091 1.1509871
2.7854488 -13.953091 1.2509872
2.7854488 -13.953091 1.3509872
2.7854488 -13.953091 1.4509872
2.7854488 -13.953091 1.5509872
2.7854488 -13.953091 1.6509873
2.7854488 -13.953091 1.7509873
2.7854488 -13.953091 1.8509873
2.7854488 -13.953091 1.9509873
2.7854488 -13.953091 2.0509872
2.7854488 -13.953091 2.1509871
2.7854488 -13.953091 2.2509871
2.7854488 -13.953091 2.350987
2.7854488 -13.953091 2.4509869
2.7854488 -13.953091 2.5509868
2.7854488 -13.953091 2.6509867
2.7854488 -13.953091 2.7509866
2.7854488 -13.85309 0.9509871
2.7854488 -13.85309 1.0509871
2.7854488 -13.85309 1.1509871
2.7854488 -13.85309 1.2509872
2.7854488 -13.85309 1.3509872
2.7854488 -13.85309 1.4509872
2.7854488 -13.85309 1.5509872
2.7854488 -13.85309 1.6509873
2.7854488 -13.85309 1.7509873
2.7854488 -13.85309 1.8509873
2.7854488 -13.85309 1.9509873
2.7854488 -13.85309 2.0509872
2.7854488 -13.85309 2.1509871
2.7854488 -13.85309 2.2509871
2.7854488 -13.85309 2.350987
2.7854488 -13.85309 2.4509869
2.7854488 -13.85309 2.5509868
2.7854488 -13.85309 2.6509867
2.7854488 -13.85309 2.7509866
2.8854487 -14.753094 0.9509871
2.8854487 -14.753094 1.0509871
2.8854487 -14.753094 1.1509871
2.8854487 -14.753094 1.2509872
2.8854487 -14.753094 1.3509872
2.8854487 -14.753094 1.4509872
2.8854487 -14.753094 1.5509872
2.8854487 -14.753094 1.6509873
2.8854487 -14.753094 1.7509873
2.8854487 -14.753094 1.8509873
2.8854487 -14.753094 1.9509873
2.8854487 -14.753094 2.0509872
2.8854487 -14.753094 2.1509871
2.8854487 -14.753094 2.2509871
2.8854487 -14.753094 2.350987
2.8854487 -14.753094 2.4509869
2.8854487 -14.753094 2.5509868
2.8854487 -14.753094 2.6509867
2.8854487 -14.753094 2.7509866
2.8854487 -14.653093 0.9509871
2.8854487 -14.653093 1.0509871
2.8854487 -14.653093 1.1509871
2.8854487 -14.653093 1.2509872
2.8854487 -14.653093 1.3509872
2.8854487 -14.653093 1.4509872
2.8854487 -14.653093 1.5509872
2.8854487 -14.653093 1.6509873
2.8854487 -14.653093 1.7509873
2.8854487 -14.653093 1.8509873
2.8854487 -14.653093 1.9509873
2.8854487 -14.653093 2.0509872
2.8854487 -14.653093 2.1509871
2.8854487 -14.653093 2.2509871
2.8854487 -14.653093 2.350987
2.8854487 -14.653093 2.4509869
2.8854487 -14.653093 2.5509868
2.8854487 -14.653093 2.6509867
2.8854487 -14.653093 2.7509866
2.8854487 -14.553093 0.9509871
2.8854487 -14.553093 1.0509871
2.8854487 -14.553093 1.1509871
2.8854487 -14.553093 1.2509872
2.8854487 -14.553093 1.3509872
2.8854487 -14.553093 1.4509872
2.8854487 -14.553093 1.5509872
2.8854487 -14.553093 1.6509873
2.8854487 -14.553093 1.7509873
2.8854487 -14.553093 1.8509873
2.8854487 -14.553093 1.9509873
2.8854487 -14.553093 2.0509872
2.8854487 -14.553093 2.1509871
2.8854487 -14.553093 2.2509871
2.8854487 -14.553093 2.350987
2.8854487 -14.553093 2.4509869
2.8854487 -14.553093 2.5509868
2.8854487 -14.553093 2.6509867
2.8854487 -14.553093 2.7509866
2.8854487 -14.453093 0.9509871
2.8854487 -14.453093 1.0509871
2.8854487 -14.453093 1.1509871
2.8854487 -14.453093 1.2509872
2.8854487 -14.453093 1.3509872
2.8854487 -14.453093 1.4509872
2.8854487 -14.453093 1.5509872
2.8854487 -14.453093 1.6509873
2.8854487 -14.453093 1.7509873
2.8854487 -14.453093 1.8509873
2.8854487 -14.453093 1.9509873
2.8854487 -14.453093 2.0509872
2.8854487 -14.453093 2.1509871
2.8854487 -14.453093 2.2509871
2.8854487 -14.453093 2.350987
2.8854487 -14.453093 2.4509869
2.8854487 -14.453093 2.5509868
2.8854487 -14.453093 2.6509867
2.8854487 -14.453093 2.7509866
2.8854487 -14.353092 0.9509871
2.8854487 -14.353092 1.0509871
2.8854487 -14.353092 1.1509871
2.8854487 -14.353092 1.2509872
2.8854487 -14.353092 1.3509872
2.8854487 -14.353092 1.4509872
2.8854487 -14.353092 1.5509872
2.8854487 -14.353092 1.6509873
2.8854487 -14.353092 1.7509873
2.8854487 -14.353092 1.8509873
2.8854487 -14.353092 1.9509873
2.8854487 -14.353092 2.0509872
2.8854487 -14.353092 2.1509871
2.8854487 -14.353092 2.2509871
2.8854487 -14.353092 2.350987
2.8854487 -14.353092 2.4509869
2.8854487 -14.353092 2.5509868
2.8854487 -14.353092 2.6509867
2.8854487 -14.353092 2.7509866
2.8854487 -14.253092 0.9509871
2.8854487 -14.253092 1.0509871
2.8854487 -14.253092 1.1509871
2.8854487 -14.253092 1.2509872
2.8854487 -14.253092 1.3509872
2.8854487 -14.253092 1.4509872
2.8854487 -14.253092 1.5509872
2.8854487 -14.253092 1.6509873
2.8854487 -14.253092 1.7509873
2.8854487 -14.253092 1.8509873
2.8854487 -14.253092 1.9509873
2.8854487 -14.253092 2.0509872
2.8854487 -14.253092 2.1509871
2.8854487 -14.253092 2.2509871
2.8854487 -14.253092 2.350987
2.8854487 -14.253092 2.4509869
2.8854487 -14.253092 2.5509868
2.8854487 -14.253092 2.6509867
2.8854487 -14.253092 2.7509866
2.8854487 -14.153091 0.9509871
2.8854487 -14.153091 1.0509871
2.8854487 -14.153091 1.1509871
2.8854487 -14.153091 1.2509872
2.8854487 -14.153091 1.3509872
2.8854487 -14.153091 1.4509872
2.8854487 -14.153091 1.5509872
2.8854487 -14.153091 1.6509873
2.8854487 -14.153091 1.7509873
2.8854487 -14.153091 1.8509873
2.8854487 -14.153091 1.9509873
2.8854487 -14.153091 2.0509872
2.8854487 -14.153091 2.1509871
2.8854487 -14.153091 2.2509871
2.8854487 -14.153091 2.350987
2.8854487 -14.153091 2.4509869
2.8854487 -14.153091 2.5509868
2.8854487 -14.153091 2.6509867
2.8854487 -14.153091 2.7509866
2.8854487 -14.053091 0.9509871
2.8854487 -14.053091 1.0509871
2.8854487 -14.053091 1.1509871
2.8854487 -14.053091 1.2509872
2.8854487 -14.053091 1.3509872
2.8854487 -14.053091 1.4509872
2.8854487 -14.053091 1.5509872
2.8854487 -14.053091 1.6509873
2.8854487 -14.053091 1.7509873
2.8854487 -14.053091 1.8509873
2.8854487 -14.053091 1.9509873
2.8854487 -14.053091 2.0509872
2.8854487 -14.053091 2.1509871
2.8854487 -14.053091 2.2509871
2.8854487 -14.053091 2.350987
2.8854487 -14.053091 2.4509869
2.8854487 -14.053091 2.5509868
2.8854487 -14.053091 2.6509867
2.8854487 -14.053091 2.7509866
2.8854487 -13.953091 0.9509871
2.8854487 -13.953091 1.0509871
2.8854487 -13.953091 1.1509871
2.8854487 -13.953091 1.2509872
2.8854487 -13.953091 1.3509872
2.8854487 -13.953091 1.4509872
2.8854487 -13.953091 1.5509872
2.8854487 -13.953091 1.6509873
2.8854487 -13.953091 1.7509873
2.8854487 -13.953091 1.8509873
2.8854487 -13.953091 1.9509873
2.8854487 -13.953091 2.0509872
2.8854487 -13.953091 2.1509871
2.8854487 -13.953091 2.2509871
2.8854487 -13.953091 2.350987
2.8854487 -13.953091 2.4509869
2.8854487 -13.953091 2.5509868
2.8854487 -13.953091 2.6509867
2.8854487 -13.953091 2.7509866
2.8854487 -13.85309 0.9509871
2.8854487 -13.85309 1.0509871
2.8854487 -13.85309 1.1509871
2.8854487 -13.85309 1.2509872
2.8854487 -13.85309 1.3509872
2.8854487 -13.85309 1.4509872
2.8854487 -13.85309 1.5509872
2.8854487 -13.85309 1.6509873
2.8854487 -13.85309 1.7509873
2.8854487 -13.85309 1.8509873
2.8854487 -13.85309 1.9509873
2.8854487 -13.85309 2.0509872
2.8854487 -13.85309 2.1509871
2.8854487 -13.85309 2.2509871
2.8854487 -13.85309 2.350987
2.8854487 -13.85309 2.4509869
2.8854487 -13.85309 2.5509868
2.8854487 -13.85309 2.6509867
2.8854487 -13.85309 2.7509866
2.9854486 -14.753094 0.9509871
2.9854486 -14.753094 1.0509871
2.9854486 -14.753094 1.1509871
2.9854486 -14.753094 1.2509872
2.9854486 -14.753094 1.3509872
2.9854486 -14.753094 1.4509872
2.9854486 -14.753094 1.5509872
2.9854486 -14.753094 1.6509873
2.9854486 -14.753094 1.7509873
2.9854486 -14.753094 1.8509873
2.9854486 -14.753094 1.9509873
2.9854486 -14.753094 2.0509872
2.9854486 -14.753094 2.1509871
2.9854486 -14.753094 2.2509871
2.9854486 -14.753094 2.350987
2.9854486 -14.753094 2.4509869
2.9854486 -14.753094 2.5509868
2.9854486 -14.753094 2.6509867
2.9854486 -14.753094 2.7509866
2.9854486 -14.653093 0.9509871
2.9854486 -14.653093 1.0509871
2.9854486 -14.653093 1.1509871
2.9854486 -14.653093 1.2509872
2.9854486 -14.653093 1.3509872
2.9854486 -14.653093 1.4509872
2.9854486 -14.653093 1.5509872
2.9854486 -14.653093 1.6509873
2.9854486 -14.653093 1.7509873
2.9854486 -14.653093 1.8509873
2.9854486 -14.653093 1.9509873
2.9854486 -14.653093 2.0509872
2.9854486 -14.653093 2.1509871
2.9854486 -14.653093 2.2509871
2.9854486 -14.653093 2.350987
2.9854486 -14.653093 2.4509869
2.9854486 -14.653093 2.5509868
2.9854486 -14.653093 2.6509867
2.9854486 -14.653093 2.7509866
2.9854486 -14.553093 0.9509871
2.9854486 -14.553093 1.0509871
2.9854486 -14.553093 1.1509871
2.9854486 -14.553093 1.2509872
2.9854486 -14.553093 1.3509872
2.9854486 -14.553093 1.4509872
2.9854486 -14.553093 1.5509872
2.9854486 -14.553093 1.6509873
2.9854486 -14.553093 1.7509873
2.9854486 -14.553093 1.8509873
2.9854486 -14.553093 1.9509873
2.9854486 -14.553093 2.0509872
2.9854486 -14.553093 2.1509871
2.9854486 -14.553093 2.2509871
2.9854486 -14.553093 2.350987
2.9854486 -14.553093 2.4509869
2.9854486 -14.553093 2.5509868
2.9854486 -14.553093 2.6509867
2.9854486 -14.553093 2.7509866
2.9854486 -14.453093 0.9509871
2.9854486 -14.453093 1.0509871
2.9854486 -14.453093 1.1509871
2.9854486 -14.453093 1.2509872
2.9854486 -14.453093 1.3509872
2.9854486 -14.453093 1.4509872
2.9854486 -14.453093 1.5509872
2.9854486 -14.453093 1.6509873
2.9854486 -14.453093 1.7509873
2.9854486 -14.453093 1.8509873
2.9854486 -14.453093 1.9509873
2.9854486 -14.453093 2.0509872
2.9854486 -14.453093 2.1509871
2.9854486 -14.453093 2.2509871
2.9854486 -14.453093 2.350987
2.9854486 -14.453093 2.4509869
2.9854486 -14.453093 2.5509868
2.9854486 -14.453093 2.6509867
2.9854486 -14.453093 2.7509866
2.9854486 -14.353092 0.9509871
2.9854486 -14.353092 1.0509871
2.9854486 -14.353092 1.1509871
2.9854486 -14.353092 1.2509872
2.9854486 -14.353092 1.3509872
2.9854486 -14.353092 1.4509872
2.9854486 -14.353092 1.5509872
2.9854486 -14.353092 1.6509873
2.9854486 -14.353092 1.7509873
2.9854486 -14.353092 1.8509873
2.9854486 -14.353092 1.9509873
2.9854486 -14.353092 2.0509872
2.9854486 -14.353092 2.1509871
2.9854486 -14.353092 2.2509871
2.9854486 -14.353092 2.350987
2.9854486 -14.353092 2.4509869
2.9854486 -14.353092 2.5509868
2.9854486 -14.353092 2.6509867
2.9854486 -14.353092 2.7509866
2.9854486 -14.253092 0.9509871
2.9854486 -14.253092 1.0509871
2.9854486 -14.253092 1.1509871
2.9854486 -14.253092 1.2509872
2.9854486 -14.253092 1.3509872
2.9854486 -14.253092 1.4509872
2.9854486 -14.253092 1.5509872
2.9854486 -14.253092 1.6509873
2.9854486 -14.253092 1.7509873
2.9854486 -14.253092 1.8509873
2.9854486 -14.253092 1.9509873
2.9854486 -14.253092 2.0509872
2.9854486 -14.253092 2.1509871
2.9854486 -14.253092 2.2509871
2.9854486 -14.253092 2.350987
2.9854486 -14.253092 2.4509869
2.9854486 -14.253092 2.5509868
2.9854486 -14.253092 2.6509867
2.9854486 -14.253092 2.7509866
2.9854486 -14.153091 0.9509871
2.9854486 -14.153091 1.0509871
2.9854486 -14.153091 1.1509871
2.9854486 -14.153091 1.2509872
2.9854486 -14.153091 1.3509872
2.9854486 -14.153091 1.4509872
2.9854486 -14.153091 1.5509872
2.9854486 -14.153091 1.6509873
2.9854486 -14.153091 1.7509873
2.9854486 -14.153091 1.8509873
2.9854486 -14.153091 1.9509873
2.9854486 -14.153091 2.0509872
2.9854486 -14.153091 2.1509871
2.9854486 -14.153091 2.2509871
2.9854486 -14.153091 2.350987
2.9854486 -14.153091 2.4509869
2.9854486 -14.153091 2.5509868
2.9854486 -14.153091 2.6509867
2.9854486 -14.153091 2.7509866
2.9854486 -14.053091 0.9509871
2.9854486 -14.053091 1.0509871
2.9854486 -14.053091 1.1509871
2.9854486 -14.053091 1.2509872
2.9854486 -14.053091 1.3509872
2.9854486 -14.053091 1.4509872
2.9854486 -14.053091 1.5509872
2.9854486 -14.053091 1.6509873
2.9854486 -14.053091 1.7509873
2.9854486 -14.053091 1.8509873
2.9854486 -14.053091 1.9509873
2.9854486 -14.053091 2.0509872
2.9854486 -14.053091 2.1509871
2.9854486 -14.053091 2.2509871
2.9854486 -14.053091 2.350987
2.9854486 -14.053091 2.4509869
2.9854486 -14.053091 2.5509868
2.9854486 -14.053091 2.6509867
2.9854486 -14.053091 2.7509866
2.9854486 -13.953091 0.9509871
2.9854486 -13.953091 1.0509871
2.9854486 -13.953091 1.1509871
2.9854486 -13.953091 1.2509872
2.9854486 -13.953091 1.3509872
2.9854486 -13.953091 1.4509872
2.9854486 -13.953091 1.5509872
2.9854486 -13.953091 1.6509873
2.9854486 -13.953091 1.7509873
2.9854486 -13.953091 1.8509873
2.9854486 -13.953091 1.9509873
2.9854486 -13.953091 2.0509872
2.9854486 -13.953091 2.1509871
2.9854486 -13.953091 2.2509871
2.9854486 -13.953091 2.350987
2.9854486 -13.953091 2.4509869
2.9854486 -13.953091 2.5509868
2.9854486 -13.953091 2.6509867
2.9854486 -13.953091 2.7509866
2.9854486 -13.85309 0.9509871
2.9854486 -13.85309 1.0509871
2.9854486 -13.85309 1.1509871
2.9854486 -13.85309 1.2509872
2.9854486 -13.85309 1.3509872
2.9854486 -13.85309 1.4509872
2.9854486 -13.85309 1.5509872
2.9854486 -13.85309 1.6509873
2.9854486 -13.85309 1.7509873
2.9854486 -13.85309 1.8509873
2.9854486 -13.85309 1.9509873
2.9854486 -13.85309 2.0509872
2.9854486 -13.85309 2.1509871
2.9854486 -13.85309 2.2509871
2.9854486 -13.85309 2.350987
2.9854486 -13.85309 2.4509869
2.9854486 -13.85309 2.5509868
2.9854486 -13.85309 2.6509867
2.9854486 -13.85309 2.7509866
3.0854485 -14.753094 0.9509871
3.0854485 -14.753094 1.0509871
3.0854485 -14.753094 1.1509871
3.0854485 -14.753094 1.2509872
3.0854485 -14.753094 1.3509872
3.0854485 -14.753094 1.4509872
3.0854485 -14.753094 1.5509872
3.0854485 -14.753094 1.6509873
3.0854485 -14.753094 1.7509873
3.0854485 -14.753094 1.8509873
3.0854485 -14.753094 1.9509873
3.0854485 -14.753094 2.0509872
3.0854485 -14.753094 2.1509871
3.0854485 -14.753094 2.2509871
3.0854485 -14.753094 2.350987
3.0854485 -14.753094 2.4509869
3.0854485 -14.753094 2.5509868
3.0854485 -14.753094 2.6509867
3.0854485 -14.753094 2.7509866
3.0854485 -14.653093 0.9509871
3.0854485 -14.653093 1.0509871
3.0854485 -14.653093 1.1509871
3.0854485 -14.653093 1.2509872
3.0854485 -14.653093 1.3509872
3.0854485 -14.653093 1.4509872
3.0854485 -14.653093 1.5509872
3.0854485 -14.653093 1.6509873
3.0854485 -14.653093 1.7509873
3.0854485 -14.653093 1.8509873
3.0854485 -14.653093 1.9509873
3.0854485 -14.653093 2.0509872
3.0854485 -14.653093 2.1509871
3.0854485 -14.653093 2.2509871
3.0854485 -14.653093 2.350987
3.0854485 -14.653093 2.4509869
3.0854485 -14.653093 2.5509868
3.0854485 -14.653093 2.6509867
3.0854485 -14.653093 2.7509866
3.0854485 -14.553093 0.9509871
3.0854485 -14.553093 1.0509871
3.0854485 -14.553093 1.1509871
3.0854485 -14.553093 1.2509872
3.0854485 -14.553093 1.3509872
3.0854485 -14.553093 1.4509872
3.0854485 -14.553093 1.5509872
3.0854485 -14.553093 1.6509873
3.0854485 -14.553093 1.7509873
3.0854485 -14.553093 1.8509873
3.0854485 -14.553093 1.9509873
3.0854485 -14.553093 2.0509872
3.0854485 -14.553093 2.1509871
3.0854485 -14.553093 2.2509871
3.0854485 -14.553093 2.350987
3.0854485 -14.553093 2.4509869
3.0854485 -14.553093 2.5509868
3.0854485 -14.553093 2.6509867
3.0854485 -14.553093 2.7509866
3.0854485 -14.453093 0.9509871
3.0854485 -14.453093 1.0509871
3.0854485 -14.453093 1.1509871
3.0854485 -14.453093 1.2509872
3.0854485 -14.453093 1.3509872
3.0854485 -14.453093 1.4509872
3.0854485 -14.453093 1.5509872
3.0854485 -14.453093 1.6509873
3.0854485 -14.453093 1.7509873
3.0854485 -14.453093 1.8509873
3.0854485 -14.453093 1.9509873
3.0854485 -14.453093 2.0509872
3.0854485 -14.453093 2.1509871
3.0854485 -14.453093 2.2509871
3.0854485 -14.453093 2.350987
3.0854485 -14.453093 2.4509869
3.0854485 -14.453093 2.5509868
3.0854485 -14.453093 2.6509867
3.0854485 -14.453093 2.7509866
3.0854485 -14.353092 0.9509871
3.0854485 -14.353092 1.0509871
3.0854485 -14.353092 1.1509871
3.0854485 -14.353092 1.2509872
3.0854485 -14.353092 1.3509872
3.0854485 -14.353092 1.4509872
3.0854485 -14.353092 1.5509872
3.0854485 -14.353092 1.6509873
3.0854485 -14.353092 1.7509873
3.0854485 -14.353092 1.8509873
3.0854485 -14.353092 1.9509873
3.0854485 -14.353092 2.0509872
3.0854485 -14.353092 2.1509871
3.0854485 -14.353092 2.2509871
3.0854485 -14.353092 2.350987
3.0854485 -14.353092 2.4509869
3.0854485 -14.353092 2.5509868
3.0854485 -14.353092 2.6509867
3.0854485 -14.353092 2.7509866
3.0854485 -14.253092 0.9509871
3.0854485 -14.253092 1.0509871
3.0854485 -14.253092 1.1509871
3.0854485 -14.253092 1.2509872
3.0854485 -14.253092 1.3509872
3.0854485 -14.253092 1.4509872
3.0854485 -14.253092 1.5509872
3.0854485 -14.253092 1.6509873
3.0854485 -14.253092 1.7509873
3.0854485 -14.253092 1.8509873
3.0854485 -14.253092 1.9509873
3.0854485 -14.253092 2.0509872
3.0854485 -14.253092 2.1509871
3.0854485 -14.253092 2.2509871
3.0854485 -14.253092 2.350987
3.0854485 -14.253092 2.4509869
3.0854485 -14.253092 2.5509868
3.0854485 -14.253092 2.6509867
3.0854485 -14.253092 2.7509866
3.0854485 -14.153091 0.9509871
3.0854485 -14.153091 1.0509871
3.0854485 -14.153091 1.1509871
3.0854485 -14.153091 1.2509872
3.0854485 -14.153091 1.3509872
3.0854485 -14.153091 1.4509872
3.0854485 -14.153091 1.5509872
3.0854485 -14.153091 1.6509873
3.0854485 -14.153091 1.7509873
3.0854485 -14.153091 1.8509873
3.0854485 -14.153091 1.9509873
3.0854485 -14.153091 2.0509872
3.0854485 -14.153091 2.1509871
3.0854485 -14.153091 2.2509871
3.0854485 -14.153091 2.350987
3.0854485 -14.153091 2.4509869
3.0854485 -14.153091 2.5509868
3.0854485 -14.153091 2.6509867
3.0854485 -14.153091 2.7509866
3.0854485 -14.053091 0.9509871
3.0854485 -14.053091 1.0509871
3.0854485 -14.053091 1.1509871
3.0854485 -14.053091 1.2509872
3.0854485 -14.053091 1.3509872
3.0854485 -14.053091 1.4509872
3.0854485 -14.053091 1.5509872
3.0854485 -14.053091 1.6509873
3.0854485 -14.053091 1.7509873
3.0854485 -14.053091 1.8509873
3.0854485 -14.053091 1.9509873
3.0854485 -14.053091 2.0509872
3.0854485 -14.053091 2.1509871
3.0854485 -14.053091 2.2509871
3.0854485 -14.053091 2.350987
3.0854485 -14.053091 2.4509869
3.0854485 -14.053091 2.5509868
3.0854485 -14.053091 2.6509867
3.0854485 -14.053091 2.7509866
3.0854485 -13.953091 0.9509871
3.0854485 -13.953091 1.0509871
3.0854485 -13.953091 1.1509871
3.0854485 -13.953091 1.2509872
3.0854485 -13.953091 1.3509872
3.0854485 -13.953091 1.4509872
3.0854485 -13.953091 1.5509872
3.0854485 -13.953091 1.6509873
3.0854485 -13.953091 1.7509873
3.0854485 -13.953091 1.8509873
3.0854485 -13.953091 1.9509873
3.0854485 -13.953091 2.0509872
3.0854485 -13.953091 2.1509871
3.0854485 -13.953091 2.2509871
3.0854485 -13.953091 2.350987
3.0854485 -13.953091 2.4509869
3.0854485 -13.953091 2.5509868
3.0854485 -13.953091 2.6509867
3.0854485 -13.953091 2.7509866
3.0854485 -13.85309 0.9509871
3.0854485 -13.85309 1.0509871
3.0854485 -13.85309 1.1509871
3.0854485 -13.85309 1.2509872
3.0854485 -13.85309 1.3509872
3.0854485 -13.85309 1.4509872
3.0854485 -13.85309 1.5509872
3.0854485 -13.85309 1.6509873
3.0854485 -13.85309 1.7509873
3.0854485 -13.85309 1.8509873
3.0854485 -13.85309 1.9509873
3.0854485 -13.85309 2.0509872
3.0854485 -13.85309 2.1509871
3.0854485 -13.85309 2.2509871
3.0854485 -13.85309 2.350987
3.0854485 -13.85309 2.4509869
3.0854485 -13.85309 2.5509868
3.0854485 -13.85309 2.6509867
3.0854485 -13.85309 2.7509866
3.1854484 -14.753094 0.9509871
3.1854484 -14.753094 1.0509871
3.1854484 -14.753094 1.1509871
3.1854484 -14.753094 1.2509872
3.1854484 -14.753094 1.3509872
3.1854484 -14.753094 1.4509872
3.1854484 -14.753094 1.5509872
3.1854484 -14.753094 1.6509873
3.1854484 -14.753094 1.7509873
3.1854484 -14.753094 1.8509873
3.1854484 -14.753094 1.9509873
3.1854484 -14.753094 2.0509872
3.1854484 -14.753094 2.1509871
3.1854484 -14.753094 2.2509871
3.1854484 -14.753094 2.350987
3.1854484 -14.753094 2.4509869
3.1854484 -14.753094 2.5509868
3.1854484 -14.753094 2.6509867
3.1854484 -14.753094 2.7509866
3.1854484 -14.653093 0.9509871
3.1854484 -14.653093 1.0509871
3.1854484 -14.653093 1.1509871
3.1854484 -14.653093 1.2509872
3.1854484 -14.653093 1.3509872
3.1854484 -14.653093 1.4509872
3.1854484 -14.653093 1.5509872
3.1854484 -14.653093 1.6509873
3.1854484 -14.653093 1.7509873
3.1854484 -14.653093 1.8509873
3.1854484 -14.653093 1.9509873
3.1854484 -14.653093 2.0509872
3.1854484 -14.653093 2.1509871
3.1854484 -14.653093 2.2509871
3.1854484 -14.653093 2.350987
3.1854484 -14.653093 2.4509869
3.1854484 -14.653093 2.5509868
3.1854484 -14.653093 2.6509867
3.1854484 -14.653093 2.7509866
3.1854484 -14.553093 0.9509871
3.1854484 -14.553093 1.0509871
3.1854484 -14.553093 1.1509871
3.1854484 -14.553093 1.2509872
3.1854484 -14.553093 1.3509872
3.1854484 -14.553093 1.4509872
3.1854484 -14.553093 1.5509872
3.1854484 -14.553093 1.6509873
3.1854484 -14.553093 1.7509873
3.1854484 -14.553093 1.8509873
3.1854484 -14.553093 1.9509873
3.1854484 -14.553093 2.0509872
3.1854484 -14.553093 2.1509871
3.1854484 -14.553093 2.2509871
3.1854484 -14.553093 2.350987
3.1854484 -14.553093 2.4509869
3.1854484 -14.553093 2.5509868
3.1854484 -14.553093 2.6509867
3.1854484 -14.553093 2.7509866
3.1854484 -14.453093 0.9509871
3.1854484 -14.453093 1.0509871
3.1854484 -14.453093 1.1509871
3.1854484 -14.453093 1.2509872
3.1854484 -14.453093 1.3509872
3.1854484 -14.453093 1.4509872
3.1854484 -14.453093 1.5509872
3.1854484 -14.453093 1.6509873
3.1854484 -14.453093 1.7509873
3.1854484 -14.453093 1.8509873
3.1854484 -14.453093 1.9509873
3.1854484 -14.453093 2.0509872
3.1854484 -14.453093 2.1509871
3.1854484 -14.453093 2.2509871
3.1854484 -14.453093 2.350987
3.1854484 -14.453093 2.4509869
3.1854484 -14.453093 2.5509868
3.1854484 -14.453093 2.6509867
3.1854484 -14.453093 2.7509866
3.1854484 -14.353092 0.9509871
3.1854484 -14.353092 1.0509871
3.1854484 -14.353092 1.1509871
3.1854484 -14.353092 1.2509872
3.1854484 -14.353092 1.3509872
3.1854484 -14.353092 1.4509872
3.1854484 -14.353092 1.5509872
3.1854484 -14.353092 1.6509873
3.1854484 -14.353092 1.7509873
3.1854484 -14.353092 1.8509873
3.1854484 -14.353092 1.9509873
3.1854484 -14.353092 2.0509872
3.1854484 -14.353092 2.1509871
3.1854484 -14.353092 2.2509871
3.1854484 -14.353092 2.350987
3.1854484 -14.353092 2.4509869
3.1854484 -14.353092 2.5509868
3.1854484 -14.353092 2.6509867
3.1854484 -14.353092 2.7509866
3.1854484 -14.253092 0.9509871
3.1854484 -14.253092 1.0509871
3.1854484 -14.253092 1.1509871
3.1854484 -14.253092 1.2509872
3.1854484 -14.253092 1.3509872
3.1854484 -14.253092 1.4509872
3.1854484 -14.253092 1.5509872
3.1854484 -14.253092 1.6509873
3.1854484 -14.253092 1.7509873
3.1854484 -14.253092 1.8509873
3.1854484 -14.253092 1.9509873
3.1854484 -14.253092 2.0509872
3.1854484 -14.253092 2.1509871
3.1854484 -14.253092 2.2509871
3.1854484 -14.253092 2.350987
3.1854484 -14.253092 2.4509869
3.1854484 -14.253092 2.5509868
3.1854484 -14.253092 2.6509867
3.1854484 -14.253092 2.7509866
3.1854484 -14.153091 0.9509871
3.1854484 -14.153091 1.0509871
3.1854484 -14.153091 1.1509871
3.1854484 -14.153091 1.2509872
3.1854484 -14.153091 1.3509872
3.1854484 -14.153091 1.4509872
3.1854484 -14.153091 1.5509872
3.1854484 -14.153091 1.6509873
3.1854484 -14.153091 1.7509873
3.1854484 -14.153091 1.8509873
3.1854484 -14.153091 1.9509873
3.1854484 -14.153091 2.0509872
3.1854484 -14.153091 2.1509871
3.1854484 -14.153091 2.2509871
3.1854484 -14.153091 2.350987
3.1854484 -14.153091 2.4509869
3.1854484 -14.153091 2.5509868
3.1854484 -14.153091 2.6509867
3.1854484 -14.153091 2.7509866
3.1854484 -14.053091 0.9509871
3.1854484 -14.053091 1.0509871
3.1854484 -14.053091 1.1509871
3.1854484 -14.053091 1.2509872
3.1854484 -14.053091 1.3509872
3.1854484 -14.053091 1.4509872
3.1854484 -14.053091 1.5509872
3.1854484 -14.053091 1.6509873
3.1854484 -14.053091 1.7509873
3.1854484 -14.053091 1.8509873
3.1854484 -14.053091 1.9509873
3.1854484 -14.053091 2.0509872
3.1854484 -14.053091 2.1509871
3.1854484 -14.053091 2.2509871
3.1854484 -14.053091 2.350987
3.1854484 -14.053091 2.4509869
3.1854484 -14.053091 2.5509868
3.1854484 -14.053091 2.6509867
3.1854484 -14.053091 2.7509866
3.1854484 -13.953091 0.9509871
3.1854484 -13.953091 1.0509871
3.1854484 -13.953091 1.1509871
3.1854484 -13.953091 1.2509872
3.1854484 -13.953091 1.3509872
3.1854484 -13.953091 1.4509872
3.1854484 -13.953091 1.5509872
3.1854484 -13.953091 1.6509873
3.1854484 -13.953091 1.7509873
3.1854484 -13.953091 1.8509873
3.1854484 -13.953091 1.9509873
3.1854484 -13.953091 2.0509872
3.1854484 -13.953091 2.1509871
3.1854484 -13.953091 2.2509871
3.1854484 -13.953091 2.350987
3.1854484 -13.953091 2.4509869
3.1854484 -13.953091 2.5509868
3.1854484 -13.953091 2.6509867
3.1854484 -13.953091 2.7509866
3.1854484 -13.85309 0.9509871
3.1854484 -13.85309 1.0509871
3.1854484 -13.85309 1.1509871
3.1854484 -13.85309 1.2509872
3.1854484 -13.85309 1.3509872
3.1854484 -13.85309 1.4509872
3.1854484 -13.85309 1.5509872
3.1854484 -13.85309 1.6509873
3.1854484 -13.85309 1.7509873
3.1854484 -13.85309 1.8509873
3.1854484 -13.85309 1.9509873
3.1854484 -13.85309 2.0509872
3.1854484 -13.85309 2.1509871
3.1854484 -13.85309 2.2509871
3.1854484 -13.85309 2.350987
3.1854484 -13.85309 2.4509869
3.1854484 -13.85309 2.5509868
3.1854484 -13.85309 2.6509867
3.1854484 -13.85309 2.7509866
3.2854483 -14.753094 0.9509871
3.2854483 -14.753094 1.0509871
3.2854483 -14.753094 1.1509871
3.2854483 -14.753094 1.2509872
3.2854483 -14.753094 1.3509872
3.2854483 -14.753094 1.4509872
3.2854483 -14.753094 1.5509872
3.2854483 -14.753094 1.6509873
3.2854483 -14.753094 1.7509873
3.2854483 -14.753094 1.8509873
3.2854483 -14.753094 1.9509873
3.2854483 -14.753094 2.0509872
3.2854483 -14.753094 2.1509871
3.2854483 -14.753094 2.2509871
3.2854483 -14.753094 2.350987
3.2854483 -14.753094 2.4509869
3.2854483 -14.753094 2.5509868
3.2854483 -14.753094 2.6509867
3.2854483 -14.753094 2.7509866
3.2854483 -14.653093 0.9509871
3.2854483 -14.653093 1.0509871
3.2854483 -14.653093 1.1509871
3.2854483 -14.653093 1.2509872
3.2854483 -14.653093 1.3509872
3.2854483 -14.653093 1.4509872
3.2854483 -14.653093 1.5509872
3.2854483 -14.653093 1.6509873
3.2854483 -14.653093 1.7509873
3.2854483 -14.653093 1.8509873
3.2854483 -14.653093 1.9509873
3.2854483 -14.653093 2.0509872
3.2854483 -14.653093 2.1509871
3.2854483 -14.653093 2.2509871
3.2854483 -14.653093 2.350987
3.2854483 -14.653093 2.4509869
3.2854483 -14.653093 2.5509868
3.2854483 -14.653093 2.6509867
3.2854483 -14.653093 2.7509866
3.2854483 -14.553093 0.9509871
3.2854483 -14.553093 1.0509871
3.2854483 -14.553093 1.1509871
3.2854483 -14.553093 1.2509872
3.2854483 -14.553093 1.3509872
3.2854483 -14.553093 1.4509872
3.2854483 -14.553093 1.5509872
3.2854483 -14.553093 1.6509873
3.2854483 -14.553093 1.7509873
3.2854483 -14.553093 1.8509873
3.2854483 -14.553093 1.9509873
3.2854483 -14.553093 2.0509872
3.2854483 -14.553093 2.1509871
3.2854483 -14.553093 2.2509871
3.2854483 -14.553093 2.350987
3.2854483 -14.553093 2.4509869
3.2854483 -14.553093 2.5509868
3.2854483 -14.553093 2.6509867
3.2854483 -14.553093 2.7509866
3.2854483 -14.453093 0.9509871
3.2854483 -14.453093 1.0509871
3.2854483 -14.453093 1.1509871
3.2854483 -14.453093 1.2509872
3.2854483 -14.453093 1.3509872
3.2854483 -14.453093 1.4509872
3.2854483 -14.453093 1.5509872
3.2854483 -14.453093 1.6509873
3.2854483 -14.453093 1.7509873
3.2854483 -14.453093 1.8509873
3.2854483 -14.453093 1.9509873
3.2854483 -14.453093 2.0509872
3.2854483 -14.453093 2.1509871
3.2854483 -14.453093 2.2509871
3.2854483 -14.453093 2.350987
3.2854483 -14.453093 2.4509869
3.2854483 -14.453093 2.5509868
3.2854483 -14.453093 2.6509867
3.2854483 -14.453093 2.7509866
3.2854483 -14.353092 0.9509871
3.2854483 -14.353092 1.0509871
3.2854483 -14.353092 1.1509871
3.2854483 -14.353092 1.2509872
3.2854483 -14.353092 1.3509872
3.2854483 -14.353092 1.4509872
3.2854483 -14.353092 1.5509872
3.2854483 -14.353092 1.6509873
3.2854483 -14.353092 1.7509873
3.2854483 -14.353092 1.8509873
3.2854483 -14.353092 1.9509873
3.2854483 -14.353092 2.0509872
3.2854483 -14.353092 2.1509871
3.2854483 -14.353092 2.2509871
3.2854483 -14.353092 2.350987
3.2854483 -14.353092 2.4509869
3.2854483 -14.353092 2.5509868
3.2854483 -14.353092 2.6509867
3.2854483 -14.353092 2.7509866
3.2854483 -14.253092 0.9509871
3.2854483 -14.253092 1.0509871
3.2854483 -14.253092 1.1509871
3.2854483 -14.253092 1.2509872
3.2854483 -14.253092 1.3509872
3.2854483 -14.253092 1.4509872
3.2854483 -14.253092 1.5509872
3.2854483 -14.253092 1.6509873
3.2854483 -14.253092 1.7509873
3.2854483 -14.253092 1.8509873
3.2854483 -14.253092 1.9509873
3.2854483 -14.253092 2.0509872
3.2854483 -14.253092 2.1509871
3.2854483 -14.253092 2.2509871
3.2854483 -14.253092 2.350987
3.2854483 -14.253092 2.4509869
3.2854483 -14.253092 2.5509868
3.2854483 -14.253092 2.6509867
3.2854483 -14.253092 2.7509866
3.2854483 -14.153091 0.9509871
3.2854483 -14.153091 1.0509871
3.2854483 -14.153091 1.1509871
3.2854483 -14.153091 1.2509872
3.2854483 -14.153091 1.3509872
3.2854483 -14.153091 1.4509872
3.2854483 -14.153091 1.5509872
3.2854483 -14.153091 1.6509873
3.2854483 -14.153091 1.7509873
3.2854483 -14.153091 1.8509873
3.2854483 -14.153091 1.9509873
3.2854483 -14.153091 2.0509872
3.2854483 -14.153091 2.1509871
3.2854483 -14.153091 2.2509871
3.2854483 -14.153091 2.350987
3.2854483 -14.153091 2.4509869
3.2854483 -14.153091 2.5509868
3.2854483 -14.153091 2.6509867
3.2854483 -14.153091 2.7509866
3.2854483 -14.053091 0.9509871
3.2854483 -14.053091 1.0509871
3.2854483 -14.053091 1.1509871
3.2854483 -14.053091 1.2509872
3.2854483 -14.053091 1.3509872
3.2854483 -14.053091 1.4509872
3.2854483 -14.053091 1.5509872
3.2854483 -14.053091 1.6509873
3.2854483 -14.053091 1.7509873
3.2854483 -14.053091 1.8509873
3.2854483 -14.053091 1.9509873
3.2854483 -14.053091 2.0509872
3.2854483 -14.053091 2.1509871
3.2854483 -14.053091 2.2509871
3.2854483 -14.053091 2.350987
3.2854483 -14.053091 2.4509869
3.2854483 -14.053091 2.5509868
3.2854483 -14.053091 2.6509867
3.2854483 -14.053091 2.7509866
3.2854483 -13.953091 0.9509871
3.2854483 -13.953091 1.0509871
3.2854483 -13.953091 1.1509871
3.2854483 -13.953091 1.2509872
3.2854483 -13.953091 1.3509872
3.2854483 -13.953091 1.4509872
3.2854483 -13.953091 1.5509872
3.2854483 -13.953091 1.6509873
3.2854483 -13.953091 1.7509873
3.2854483 -13.953091 1.8509873
3.2854483 -13.953091 1.9509873
3.2854483 -13.953091 2.0509872
3.2854483 -13.953091 2.1509871
3.2854483 -13.953091 2.2509871
3.2854483 -13.953091 2.350987
3.2854483 -13.953091 2.4509869
3.2854483 -13.953091 2.5509868
3.2854483 -13.953091 2.6509867
3.2854483 -13.953091 2.7509866
3.2854483 -13.85309 0.9509871
3.2854483 -13.85309 1.0509871
3.2854483 -13.85309 1.1509871
3.2854483 -13.85309 1.2509872
3.2854483 -13.85309 1.3509872
3.2854483 -13.85309 1.4509872
3.2854483 -13.85309 1.5509872
3.2854483 -13.85309 1.6509873
3.2854483 -13.85309 1.7509873
3.2854483 -13.85309 1.8509873
3.2854483 -13.85309 1.9509873
3.2854483 -13.85309 2.0509872
3.2854483 -13.85309 2.1509871
3.2854483 -13.85309 2.2509871
3.2854483 -13.85309 2.350987
3.2854483 -13.85309 2.4509869
3.2854483 -13.85309 2.5509868
3.2854483 -13.85309 2.6509867
3.2854483 -13.85309 2.7509866
3.3854482 -14.753094 0.9509871
3.3854482 -14.753094 1.0509871
3.3854482 -14.753094 1.1509871
3.3854482 -14.753094 1.2509872
3.3854482 -14.753094 1.3509872
3.3854482 -14.753094 1.4509872
3.3854482 -14.753094 1.5509872
3.3854482 -14.753094 1.6509873
3.3854482 -14.753094 1.7509873
3.3854482 -14.753094 1.8509873
3.3854482 -14.753094 1.9509873
3.3854482 -14.753094 2.0509872
3.3854482 -14.753094 2.1509871
3.3854482 -14.753094 2.2509871
3.3854482 -14.753094 2.350987
3.3854482 -14.753094 2.4509869
3.3854482 -14.753094 2.5509868
3.3854482 -14.753094 2.6509867
3.3854482 -14.753094 2.7509866
3.3854482 -14.653093 0.9509871
3.3854482 -14.653093 1.0509871
3.3854482 -14.653093 1.1509871
3.3854482 -14.653093 1.2509872
3.3854482 -14.653093 1.3509872
3.3854482 -14.653093 1.4509872
3.3854482 -14.653093 1.5509872
3.3854482 -14.653093 1.6509873
3.3854482 -14.653093 1.7509873
3.3854482 -14.653093 1.8509873
3.3854482 -14.653093 1.9509873
3.3854482 -14.653093 2.0509872
3.3854482 -14.653093 2.1509871
3.3854482 -14.653093 2.2509871
3.3854482 -14.653093 2.350987
3.3854482 -14.653093 2.4509869
3.3854482 -14.653093 2.5509868
3.3854482 -14.653093 2.6509867
3.3854482 -14.653093 2.7509866
3.3854482 -14.553093 0.9509871
3.3854482 -14.553093 1.0509871
3.3854482 -14.553093 1.1509871
3.3854482 -14.553093 1.2509872
3.3854482 -14.553093 1.3509872
3.3854482 -14.553093 1.4509872
3.3854482 -14.553093 1.5509872
3.3854482 -14.553093 1.6509873
3.3854482 -14.553093 1.7509873
3.3854482 -14.553093 1.8509873
3.3854482 -14.553093 1.9509873
3.3854482 -14.553093 2.0509872
3.3854482 -14.553093 2.1509871
3.3854482 -14.553093 2.2509871
3.3854482 -14.553093 2.350987
3.3854482 -14.553093 2.4509869
3.3854482 -14.553093 2.5509868
3.3854482 -14.553093 2.6509867
3.3854482 -14.553093 2.7509866
3.3854482 -14.453093 0.9509871
3.3854482 -14.453093 1.0509871
3.3854482 -14.453093 1.1509871
3.3854482 -14.453093 1.2509872
3.3854482 -14.453093 1.3509872
3.3854482 -14.453093 1.4509872
3.3854482 -14.453093 1.5509872
3.3854482 -14.453093 1.6509873
3.3854482 -14.453093 1.7509873
3.3854482 -14.453093 1.8509873
3.3854482 -14.453093 1.9509873
3.3854482 -14.453093 2.0509872
3.3854482 -14.453093 2.1509871
3.3854482 -14.453093 2.2509871
3.3854482 -14.453093 2.350987
3.3854482 -14.453093 2.4509869
3.3854482 -14.453093 2.5509868
3.3854482 -14.453093 2.6509867
3.3854482 -14.453093 2.7509866
3.3854482 -14.353092 0.9509871
3.3854482 -14.353092 1.0509871
3.3854482 -14.353092 1.1509871
3.3854482 -14.353092 1.2509872
3.3854482 -14.353092 1.3509872
3.3854482 -14.353092 1.4509872
3.3854482 -14.353092 1.5509872
3.3854482 -14.353092 1.6509873
3.3854482 -14.353092 1.7509873
3.3854482 -14.353092 1.8509873
3.3854482 -14.353092 1.9509873
3.3854482 -14.353092 2.0509872
3.3854482 -14.353092 2.1509871
3.3854482 -14.353092 2.2509871
3.3854482 -14.353092 2.350987
3.3854482 -14.353092 2.4509869
3.3854482 -14.353092 2.5509868
3.3854482 -14.353092 2.6509867
3.3854482 -14.353092 2.7509866
3.3854482 -14.253092 0.9509871
3.3854482 -14.253092 1.0509871
3.3854482 -14.253092 1.1509871
3.3854482 -14.253092 1.2509872
3.3854482 -14.253092 1.3509872
3.3854482 -14.253092 1.4509872
3.3854482 -14.253092 1.5509872
3.3854482 -14.253092 1.6509873
3.3854482 -14.253092 1.7509873
3.3854482 -14.253092 1.8509873
3.3854482 -14.253092 1.9509873
3.3854482 -14.253092 2.0509872
3.3854482 -14.253092 2.1509871
3.3854482 -14.253092 2.2509871
3.3854482 -14.253092 2.350987
3.3854482 -14.253092 2.4509869
3.3854482 -14.253092 2.5509868
3.3854482 -14.253092 2.6509867
3.3854482 -14.253092 2.7509866
3.3854482 -14.153091 0.9509871
3.3854482 -14.153091 1.0509871
3.3854482 -14.153091 1.1509871
3.3854482 -14.153091 1.2509872
3.3854482 -14.153091 1.3509872
3.3854482 -14.153091 1.4509872
3.3854482 -14.153091 1.5509872
3.3854482 -14.153091 1.6509873
3.3854482 -14.153091 1.7509873
3.3854482 -14.153091 1.8509873
3.3854482 -14.153091 1.9509873
3.3854482 -14.153091 2.0509872
3.3854482 -14.153091 2.1509871
3.3854482 -14.153091 2.2509871
3.3854482 -14.153091 2.350987
3.3854482 -14.153091 2.4509869
3.3854482 -14.153091 2.5509868
3.3854482 -14.153091 2.6509867
3.3854482 -14.153091 2.7509866
3.3854482 -14.053091 0.9509871
3.3854482 -14.053091 1.0509871
3.3854482 -14.053091 1.1509871
3.3854482 -14.053091 1.2509872
3.3854482 -14.053091 1.3509872
3.3854482 -14.053091 1.4509872
3.3854482 -14.053091 1.5509872
3.3854482 -14.053091 1.6509873
3.3854482 -14.053091 1.7509873
3.3854482 -14.053091 1.8509873
3.3854482 -14.053091 1.9509873
3.3854482 -14.053091 2.0509872
3.3854482 -14.053091 2.1509871
3.3854482 -14.053091 2.2509871
3.3854482 -14.053091 2.350987
3.3854482 -14.053091 2.4509869
3.3854482 -14.053091 2.5509868
3.3854482 -14.053091 2.6509867
3.3854482 -14.053091 2.7509866
3.3854482 -13.953091 0.9509871
3.3854482 -13.953091 1.0509871
3.3854482 -13.953091 1.1509871
3.3854482 -13.953091 1.2509872
3.3854482 -13.953091 1.3509872
3.3854482 -13.953091 1.4509872
3.3854482 -13.953091 1.5509872
3.3854482 -13.953091 1.6509873
3.3854482 -13.953091 1.7509873
3.3854482 -13.953091 1.8509873
3.3854482 -13.953091 1.9509873
3.3854482 -13.953091 2.0509872
3.3854482 -13.953091 2.1509871
3.3854482 -13.953091 2.2509871
3.3854482 -13.953091 2.350987
3.3854482 -13.953091 2.4509869
3.3854482 -13.953091 2.5509868
3.3854482 -13.953091 2.6509867
3.3854482 -13.953091 2.7509866
3.3854482 -13.85309 0.9509871
3.3854482 -13.85309 1.0509871
3.3854482 -13.85309 1.1509871
3.3854482 -13.85309 1.2509872
3.3854482 -13.85309 1.3509872
3.3854482 -13.85309 1.4509872
3.3854482 -13.85309 1.5509872
3.3854482 -13.85309 1.6509873
3.3854482 -13.85309 1.7509873
3.3854482 -13.85309 1.8509873
3.3854482 -13.85309 1.9509873
3.3854482 -13.85309 2.0509872
3.3854482 -13.85309 2.1509871
3.3854482 -13.85309 2.2509871
3.3854482 -13.85309 2.350987
