# .PCD v0.7 - Point Cloud Data file format
VERSION 0.7
FIELDS x y z
SIZE 4 4 4
TYPE F F F
COUNT 1 1 1
WIDTH 1525
HEIGHT 1
VIEWPOINT 0 0 0 1 0 0 0
POINTS 1525
DATA ascii
5.8493094 -6.7451439 1.6209791
5.905334 -6.7543225 1.6209791
5.9619946 -6.7578621 1.6209791
6.0187254 -6.7557278 1.6209791
6.0749602 -6.7479401 1.6209791
6.130136 -6.7345772 1.6209791
6.1837025 -6.7157731 1.6209791
6.2351241 -6.6917148 1.6209791
6.2838869 -6.6626434 1.6209791
6.3295035 -6.6288486 1.6209791
6.3715186 -6.5906692 1.6209791
6.4095125 -6.5484858 1.6209791
6.4431047 -6.5027199 1.6209791
6.4719605 -6.4538288 1.6209791
6.4957914 -6.4023018 1.6209791
6.514359 -6.3486528 1.6209791
6.5274773 -6.2934179 1.6209791
6.5350165 -6.2371497 1.6209791
6.5892115 -6.1899571 1.5615232
6.586113 -6.1280427 1.5615232
6.576849 -6.0667467 1.5615232
6.561512 -6.0066814 1.5615232
6.5402551 -5.9484477 1.5615232
6.5132904 -5.8926272 1.5615232
6.4808879 -5.8397775 1.5615232
6.4433713 -5.7904263 1.5615232
6.4011149 -5.7450676 1.5615232
6.3545418 -5.704154 1.5615232
6.3041162 -5.6680942 1.5615232
6.2503428 -5.6372485 1.5615232
6.1937585 -5.6119256 1.5615232
6.1349292 -5.5923781 1.5615232
6.0744419 -5.5788012 1.5615232
6.0129013 -5.571331 1.5615232
5.9509225 -5.5700421 1.5615232
5.8891249 -5.5749469 1.5615232
5.8281255 -5.5859966 1.5615232
5.7685342 -5.6030812 1.5615232
5.7109461 -5.6260295 1.5615232
5.6559367 -5.6546125 1.5615232
5.6040554 -5.6885443 1.5615232
5.5558209 -5.7274861 1.5615232
5.5117154 -5.7710485 1.5615232
5.4721789 -5.8187966 1.5615232
5.4376068 -5.8702536 1.5615232
5.4083447 -5.9249048 1.5615232
5.384685 -5.982204 1.5615232
5.3668637 -6.0415792 1.5615232
5.3550587 -6.102437 1.5615232
5.3493886 -6.1641693 1.5615232
5.3499098 -6.2261591 1.5615232
5.356617 -6.287787 1.5615232
5.3694429 -6.3484378 1.5615232
5.3882604 -6.407505 1.5615232
5.4128804 -6.4643984 1.5615232
5.4430571 -6.5185499 1.5615232
5.4784894 -6.569418 1.5615232
5.5188227 -6.6164951 1.5615232
5.5636544 -6.6593099 1.5615232
5.6125369 -6.6974354 1.5615232
5.6649814 -6.7304902 1.5615232
5.7204633 -6.7581439 1.5615232
5.778429 -6.7801208 1.5615232
5.8382993 -6.7962012 1.5615232
5.8994761 -6.8062239 1.5615232
5.9613471 -6.8100891 1.5615232
6.0232954 -6.8077583 1.5615232
6.0847015 -6.7992544 1.5615232
6.1449518 -6.7846627 1.5615232
6.2034445 -6.7641292 1.5615232
6.2595949 -6.7378583 1.5615232
6.3128419 -6.7061133 1.5615232
6.3626542 -6.6692109 1.5615232
6.4085331 -6.6275201 1.5615232
6.4500208 -6.5814571 1.5615232
6.4867024 -6.5314827 1.5615232
6.5182118 -6.4780955 1.5615232
6.5442343 -6.4218297 1.5615232
6.5645094 -6.3632469 1.5615232
6.5788345 -6.3029327 1.5615232
6.5870667 -6.2414899 1.5615232
6.6352453 -6.1899571 1.4971498
6.631917 -6.1234469 1.4971498
6.6219654 -6.057601 1.4971498
6.6054902 -5.9930778 1.4971498
6.5826554 -5.9305215 1.4971498
6.5536895 -5.8705573 1.4971498
6.5188818 -5.8137846 1.4971498
6.47858 -5.7607703 1.4971498
6.4331875 -5.7120447 1.4971498
6.3831568 -5.6680942 1.4971498
6.3289886 -5.6293573 1.4971498
6.2712235 -5.5962224 1.4971498
6.2104392 -5.5690198 1.4971498
6.147243 -5.5480213 1.4971498
6.0822663 -5.5334368 1.4971498
6.0161576 -5.5254126 1.4971498
5.9495783 -5.5240273 1.4971498
5.8831935 -5.5292964 1.4971498
5.8176665 -5.5411663 1.4971498
5.7536516 -5.5595193 1.4971498
5.6917892 -5.5841708 1.4971498
5.6326962 -5.6148753 1.4971498
5.5769644 -5.6513257 1.4971498
5.5251498 -5.6931581 1.4971498
5.4777699 -5.7399545 1.4971498
5.4352989 -5.7912464 1.4971498
5.3981609 -5.8465228 1.4971498
5.3667269 -5.9052305 1.4971498
5.3413105 -5.966783 1.4971498
5.3221664 -6.0305657 1.4971498
5.3094854 -6.0959406 1.4971498
5.3033943 -6.1622548 1.4971498
5.3039541 -6.2288461 1.4971498
5.3111591 -6.2950487 1.4971498
5.3249373 -6.3602014 1.4971498
5.3451514 -6.4236531 1.4971498
5.3715987 -6.4847693 1.4971498
5.4040155 -6.5429406 1.4971498
5.4420776 -6.5975842 1.4971498
5.485405 -6.6481557 1.4971498
5.5335646 -6.6941485 1.4971498
5.5860753 -6.7351041 1.4971498
5.6424122 -6.7706122 1.4971498
5.702013 -6.8003187 1.4971498
5.7642813 -6.8239269 1.4971498
5.8285956 -6.8412008 1.4971498
5.8943129 -6.8519678 1.4971498
5.9607768 -6.8561196 1.4971498
6.0273232 -6.8536158 1.4971498
6.0932875 -6.844481 1.4971498
6.15801 -6.8288059 1.4971498
6.2208443 -6.8067484 1.4971498
6.2811623 -6.7785277 1.4971498
6.3383622 -6.7444263 1.4971498
6.3918715 -6.7047844 1.4971498
6.4411559 -6.6599989 1.4971498
6.485723 -6.610517 1.4971498
6.5251279 -6.5568333 1.4971498
6.5589762 -6.4994831 1.4971498
6.5869298 -6.4390411 1.4971498
6.6087098 -6.3761096 1.4971498
6.6240983 -6.3113184 1.4971498
6.6329417 -6.2453146 1.4971498
6.674623 -6.1899571 1.4285023
6.6710978 -6.1195154 1.4285023
6.6605582 -6.049778 1.4285023
6.6431088 -5.9814405 1.4285023
6.6189241 -5.9151869 1.4285023
6.5882463 -5.8516788 1.4285023
6.5513811 -5.7915506 1.4285023
6.5086975 -5.7354031 1.4285023
6.4606218 -5.6837969 1.4285023
6.4076343 -5.6372485 1.4285023
6.3502641 -5.5962224 1.4285023
6.2890849 -5.5611291 1.4285023
6.2247081 -5.5323186 1.4285023
6.1577764 -5.5100789 1.4285023
6.0889587 -5.4946327 1.4285023
6.0189433 -5.4861336 1.4285023
5.9484286 -5.4846668 1.4285023
5.8781199 -5.4902472 1.4285023
5.8087196 -5.5028191 1.4285023
5.7409215 -5.5222564 1.4285023
5.6754022 -5.5483651 1.4285023
5.6128168 -5.5808845 1.4285023
5.5537906 -5.6194892 1.4285023
5.4989133 -5.663794 1.4285023
5.4487333 -5.713356 1.4285023
5.4037523 -5.7676802 1.4285023
5.364419 -5.8262239 1.4285023
5.3311267 -5.8884015 1.4285023
5.3042083 -5.9535923 1.4285023
5.2839327 -6.0211444 1.4285023
5.2705021 -6.0903835 1.4285023
5.264051 -6.1606178 1.4285023
5.2646437 -6.2311449 1.4285023
5.272275 -6.3012605 1.4285023
5.2868671 -6.3702641 1.4285023
5.3082762 -6.4374657 1.4285023
5.3362865 -6.5021949 1.4285023
5.3706193 -6.5638041 1.4285023
5.4109316 -6.6216779 1.4285023
5.4568195 -6.6752381 1.4285023
5.5078259 -6.7239494 1.4285023
5.5634403 -6.7673254 1.4285023
5.623107 -6.8049326 1.4285023
5.6862302 -6.8363953 1.4285023
5.7521791 -6.8613987 1.4285023
5.8202949 -6.8796935 1.4285023
5.8898964 -6.8910966 1.4285023
5.960289 -6.895494 1.4285023
6.0307689 -6.8928423 1.4285023
6.1006317 -6.8831673 1.4285023
6.1691799 -6.8665662 1.4285023
6.2357278 -6.8432045 1.4285023
6.2996116 -6.8133159 1.4285023
6.3601918 -6.7771988 1.4285023
6.4168639 -6.7352142 1.4285023
6.4690614 -6.6877813 1.4285023
6.516263 -6.635375 1.4285023
6.5579967 -6.5785179 1.4285023
6.5938454 -6.5177784 1.4285023
6.6234517 -6.4537635 1.4285023
6.6465187 -6.3871126 1.4285023
6.662817 -6.3184919 1.4285023
6.672183 -6.2485867 1.4285023
6.7069507 -6.1899571 1.3562666
6.7032642 -6.1162882 1.3562666
6.6922412 -6.0433555 1.3562666
6.6739926 -5.9718871 1.3562666
6.6486998 -5.9025979 1.3562666
6.6166162 -5.8361802 1.3562666
6.5780625 -5.7732968 1.3562666
6.5334229 -5.7145767 1.3562666
6.4831448 -5.6606064 1.3562666
6.4277291 -5.6119256 1.3562666
6.3677311 -5.5690198 1.3562666
6.3037486 -5.5323186 1.3562666
6.2364221 -5.5021882 1.3562666
6.1664243 -5.4789295 1.3562666
6.0944538 -5.4627752 1.3562666
6.0212297 -5.453887 1.3562666
5.947485 -5.452353 1.3562666
5.8739548 -5.458189 1.3562666
5.8013749 -5.4713368 1.3562666
5.7304702 -5.4916649 1.3562666
5.6619492 -5.5189695 1.3562666
5.5964966 -5.552979 1.3562666
5.5347657 -5.5933523 1.3562666
5.4773741 -5.6396875 1.3562666
5.4248953 -5.6915202 1.3562666
5.3778529 -5.748333 1.3562666
5.3367176 -5.8095589 1.3562666
5.3019004 -5.8745852 1.3562666
5.2737484 -5.9427629 1.3562666
5.2525439 -6.0134101 1.3562666
5.2384977 -6.0858216 1.3562666
5.2317514 -6.1592736 1.3562666
5.2323713 -6.2330317 1.3562666
5.2403517 -6.3063598 1.3562666
5.2556133 -6.3785248 1.3562666
5.2780027 -6.4488058 1.3562666
5.3072968 -6.5165005 1.3562666
5.3432026 -6.5809321 1.3562666
5.3853612 -6.6414576 1.3562666
5.433352 -6.6974716 1.3562666
5.4866953 -6.748415 1.3562666
5.5448575 -6.7937784 1.3562666
5.6072583 -6.8331084 1.3562666
5.6732736 -6.8660126 1.3562666
5.7422438 -6.8921618 1.3562666
5.8134804 -6.9112945 1.3562666
5.886271 -6.9232202 1.3562666
5.9598885 -6.9278193 1.3562666
6.0335975 -6.925046 1.3562666
6.1066613 -6.9149275 1.3562666
6.17835 -6.8975658 1.3562666
6.2479467 -6.8731337 1.3562666
6.3147573 -6.8418756 1.3562666
6.3781133 -6.8041039 1.3562666
6.4373817 -6.7601957 1.3562666
6.491971 -6.7105899 1.3562666
6.5413351 -6.6557822 1.3562666
6.584981 -6.5963202 1.3562666
6.6224723 -6.5327978 1.3562666
6.6534348 -6.4658499 1.3562666
6.6775589 -6.3961453 1.3562666
6.6946034 -6.3243809 1.3562666
6.7043986 -6.2512732 1.3562666
6.731905 -6.1899571 1.2811644
6.7280936 -6.1137967 1.2811644
6.7166982 -6.0383978 1.2811644
6.6978321 -5.9645128 1.2811644
6.6716843 -5.8928804 1.2811644
6.6385159 -5.8242164 1.2811644
6.5986581 -5.7592068 1.2811644
6.5525093 -5.6985006 1.2811644
6.5005307 -5.6427054 1.2811644
6.4432411 -5.5923781 1.2811644
6.3812137 -5.5480213 1.2811644
6.3150682 -5.5100789 1.2811644
6.2454648 -5.4789295 1.2811644
6.1730995 -5.4548845 1.2811644
6.0986948 -5.4381838 1.2811644
6.022995 -5.4289951 1.2811644
5.9467559 -5.4274092 1.2811644
5.8707395 -5.4334426 1.2811644
5.7957053 -5.4470348 1.2811644
5.7224026 -5.4680505 1.2811644
5.6515646 -5.4962788 1.2811644
5.5838981 -5.5314379 1.2811644
5.5200801 -5.5731769 1.2811644
5.4607477 -5.6210785 1.2811644
5.4064941 -5.6746645 1.2811644
5.357861 -5.7333984 1.2811644
5.3153343 -5.7966948 1.2811644
5.2793398 -5.8639202 1.2811644
5.250236 -5.9344034 1.2811644
5.2283139 -6.0074396 1.2811644
5.2137933 -6.0822997 1.2811644
5.2068186 -6.1582355 1.2811644
5.2074594 -6.2344885 1.2811644
5.2157097 -6.3102965 1.2811644
5.2314873 -6.384902 1.2811644
5.2546339 -6.4575596 1.2811644
5.2849183 -6.5275431 1.2811644
5.3220387 -6.5941539 1.2811644
5.365623 -6.6567264 1.2811644
5.4152369 -6.7146344 1.2811644
5.4703836 -6.7673006 1.2811644
5.5305133 -6.814198 1.2811644
5.5950241 -6.8548584 1.2811644
5.6632719 -6.888875 1.2811644
5.7345743 -6.9159083 1.2811644
5.8082199 -6.935688 1.2811644
5.883472 -6.9480171 1.2811644
5.9595795 -6.9527717 1.2811644
6.0357809 -6.9499044 1.2811644
6.1113153 -6.9394441 1.2811644
6.1854281 -6.9214954 1.2811644
6.2573791 -6.8962369 1.2811644
6.3264489 -6.8639221 1.2811644
6.3919473 -6.824873 1.2811644
6.4532204 -6.77948 1.2811644
6.5096555 -6.7281966 1.2811644
6.560689 -6.671535 1.2811644
6.6058106 -6.6100621 1.2811644
6.6445699 -6.5443916 1.2811644
6.6765795 -6.4751797 1.2811644
6.701519 -6.4031181 1.2811644
6.7191405 -6.3289266 1.2811644
6.7292666 -6.2533464 1.2811644
6.7492371 -6.1899571 1.2039461
6.7453394 -6.1120667 1.2039461
6.733685 -6.0349541 1.2039461
6.7143903 -5.9593906 1.2039461
6.6876483 -5.8861308 1.2039461
6.6537261 -5.815907 1.2039461
6.6129627 -5.7494202 1.2039461
6.5657654 -5.687335 1.2039461
6.5126061 -5.6302719 1.2039461
6.4540153 -5.5788012 1.2039461
6.3905783 -5.5334368 1.2039461
6.3229299 -5.4946327 1.2039461
6.2517452 -5.4627752 1.2039461
6.1777358 -5.4381838 1.2039461
6.1016407 -5.421104 1.2039461
6.0242209 -5.4117064 1.2039461
5.94625 -5.4100847 1.2039461
5.8685064 -5.416255 1.2039461
5.7917671 -5.4301562 1.2039461
5.7167993 -5.4516492 1.2039461
5.644352 -5.4805188 1.2039461
5.5751481 -5.5164766 1.2039461
5.5098801 -5.559164 1.2039461
5.4491997 -5.6081543 1.2039461
5.3937135 -5.6629572 1.2039461
5.3439755 -5.7230258 1.2039461
5.3004827 -5.7877603 1.2039461
5.26367 -5.856513 1.2039461
5.2339053 -5.9285975 1.2039461
5.2114854 -6.003293 1.2039461
5.1966348 -6.079854 1.2039461
5.1895013 -6.157515 1.2039461
5.1901569 -6.2355003 1.2039461
5.198595 -6.3130302 1.2039461
5.2147307 -6.3893309 1.2039461
5.2384033 -6.4636393 1.2039461
5.2693758 -6.535213 1.2039461
5.3073392 -6.6033373 1.2039461
5.3519139 -6.6673307 1.2039461
5.4026546 -6.7265549 1.2039461
5.4590549 -6.7804174 1.2039461
5.5205503 -6.8283806 1.2039461
5.5865269 -6.8699646 1.2039461
5.6563249 -6.9047542 1.2039461
5.7292476 -6.9324017 1.2039461
5.8045664 -6.952631 1.2039461
5.8815284 -6.96524 1.2039461
5.9593644 -6.9701023 1.2039461
6.0372972 -6.9671702 1.2039461
6.1145477 -6.9564719 1.2039461
6.1903448 -6.9381151 1.2039461
6.2639303 -6.9122834 1.2039461
6.334569 -6.8792338 1.2039461
6.401556 -6.8392978 1.2039461
6.464221 -6.7928734 1.2039461
6.5219383 -6.7404251 1.2039461
6.574131 -6.6824765 1.2039461
6.6202779 -6.619607 1.2039461
6.6599178 -6.5524445 1.2039461
6.6926546 -6.4816599 1.2039461
6.7181611 -6.4079609 1.2039461
6.7361822 -6.3320837 1.2039461
6.7465391 -6.2547865 1.2039461
6.7587733 -6.1899571 1.1253833
6.754828 -6.1111145 1.1253833
6.7430315 -6.0330596 1.1253833
6.7235007 -5.9565725 1.1253833
6.6964321 -5.8824172 1.1253833
6.6620955 -5.8113346 1.1253833
6.6208339 -5.7440352 1.1253833
6.5730596 -5.6811914 1.1253833
6.5192499 -5.6234312 1.1253833
6.4599428 -5.571331 1.1253833
6.395731 -5.5254126 1.1253833
6.3272552 -5.4861336 1.1253833
6.2552009 -5.453887 1.1253833
6.1802864 -5.4289951 1.1253833
6.1032619 -5.4117064 1.1253833
6.0248957 -5.4021935 1.1253833
5.9459715 -5.4005523 1.1253833
5.8672776 -5.4067984 1.1253833
5.7896004 -5.4208689 1.1253833
5.7137165 -5.4426246 1.1253833
5.6403832 -5.4718471 1.1253833
5.5703335 -5.5082445 1.1253833
5.5042677 -5.5514541 1.1253833
5.4428458 -5.6010427 1.1253833
5.3866816 -5.6565156 1.1253833
5.3363352 -5.7173185 1.1253833
5.2923112 -5.7828441 1.1253833
5.2550483 -5.852437 1.1253833
5.2249198 -5.9254026 1.1253833
5.2022257 -6.0010114 1.1253833
5.1871934 -6.0785084 1.1253833
5.1799731 -6.1571183 1.1253833
5.1806369 -6.2360568 1.1253833
5.1891775 -6.3145347 1.1253833
5.2055106 -6.391768 1.1253833
5.2294726 -6.4669843 1.1253833
5.2608237 -6.539433 1.1253833
5.2992511 -6.6083899 1.1253833
5.3443708 -6.6731658 1.1253833
5.3957319 -6.7331138 1.1253833
5.4528213 -6.7876348 1.1253833
5.5150685 -6.836184 1.1253833
5.5818515 -6.8782763 1.1253833
5.6525025 -6.9134912 1.1253833
5.7263169 -6.9414763 1.1253833
5.802556 -6.9619532 1.1253833
5.8804588 -6.9747162 1.1253833
5.9592462 -6.9796381 1.1253833
6.0381317 -6.9766703 1.1253833
6.1163268 -6.9658413 1.1253833
6.1930499 -6.9472599 1.1253833
6.2675347 -6.9211125 1.1253833
6.3390369 -6.8876591 1.1253833
6.4068427 -6.8472347 1.1253833
6.4702735 -6.8002429 1.1253833
6.5286961 -6.7471533 1.1253833
6.5815272 -6.6884966 1.1253833
6.6282377 -6.6248584 1.1253833
6.6683626 -6.5568752 1.1253833
6.7014995 -6.4852257 1.1253833
6.7273178 -6.4106259 1.1253833
6.7455592 -6.3338213 1.1253833
6.7560425 -6.255579 1.1253833
6.7604194 -6.1899571 1.0462608
6.7564654 -6.1109505 1.0462608
6.7446442 -6.032733 1.0462608
6.7250729 -5.9560862 1.0462608
6.697948 -5.8817763 1.0462608
6.6635394 -5.8105459 1.0462608
6.6221919 -5.7431064 1.0462608
6.5743184 -5.6801314 1.0462608
6.5203967 -5.6222506 1.0462608
6.4609661 -5.5700421 1.0462608
6.3966203 -5.5240273 1.0462608
6.328002 -5.4846668 1.0462608
6.2557969 -5.452353 1.0462608
6.180727 -5.4274092 1.0462608
6.1035414 -5.4100847 1.0462608
6.025012 -5.4005523 1.0462608
5.9459233 -5.3989072 1.0462608
5.8670659 -5.4051661 1.0462608
5.7892265 -5.4192667 1.0462608
5.7131844 -5.4410672 1.0462608
5.6396985 -5.4703507 1.0462608
5.5695028 -5.506824 1.0462608
5.5032992 -5.5501232 1.0462608
5.4417496 -5.5998154 1.0462608
5.385468 -5.6554041 1.0462608
5.3350172 -5.7163339 1.0462608
5.2909012 -5.7819958 1.0462608
5.2535605 -5.8517337 1.0462608
5.2233691 -5.9248514 1.0462608
5.2006278 -6.000618 1.0462608
5.1855645 -6.0782762 1.0462608
5.178329 -6.1570501 1.0462608
5.1789937 -6.2361531 1.0462608
5.1875525 -6.3147945 1.0462608
5.2039199 -6.3921881 1.0462608
5.2279315 -6.4675617 1.0462608
5.2593479 -6.5401611 1.0462608
5.2978554 -6.609262 1.0462608
5.3430691 -6.6741729 1.0462608
5.3945374 -6.7342458 1.0462608
5.4517455 -6.7888803 1.0462608
5.5141225 -6.8375306 1.0462608
5.5810447 -6.8797107 1.0462608
5.6518431 -6.914999 1.0462608
5.725811 -6.9430428 1.0462608
5.8022094 -6.963562 1.0462608
5.8802743 -6.9763517 1.0462608
5.9592261 -6.9812837 1.0462608
6.0382757 -6.9783096 1.0462608
6.1166334 -6.9674582 1.0462608
6.1935167 -6.9488382 1.0462608
6.268157 -6.922636 1.0462608
6.339808 -6.8891129 1.0462608
6.4077549 -6.8486042 1.0462608
6.4713182 -6.8015146 1.0462608
6.5298624 -6.7483144 1.0462608
6.5828032 -6.6895356 1.0462608
6.6296115 -6.6257648 1.0462608
6.6698198 -6.5576396 1.0462608
6.7030258 -6.4858408 1.0462608
6.7288976 -6.4110856 1.0462608
6.7471776 -6.3341208 1.0462608
6.7576823 -6.2557158 1.0462608
6.7541575 -6.1899571 0.96736944
6.7502351 -6.1115751 0.96736944
6.7385073 -6.0339766 0.96736944
6.7190909 -5.9579368 0.96736944
6.6921806 -5.8842149 0.96736944
6.6580443 -5.8135476 0.96736944
6.6170239 -5.7466416 0.96736944
6.5695291 -5.684165 0.96736944
6.5160341 -5.6267424 0.96736944
6.4570737 -5.5749469 0.96736944
6.3932371 -5.5292964 0.96736944
6.3251619 -5.4902472 0.96736944
6.2535281 -5.458189 0.96736944
6.1790519 -5.4334426 0.96736944
6.1024771 -5.416255 0.96736944
6.024569 -5.4067979 0.96736944
5.9461064 -5.4051661 0.96736944
5.8678722 -5.4113755 0.96736944
5.7906494 -5.4253645 0.96736944
5.7152085 -5.4469929 0.96736944
5.6423039 -5.4760442 0.96736944
5.5726643 -5.5122294 0.96736944
5.5069842 -5.5551858 0.96736944
5.4459214 -5.6044846 0.96736944
5.3900852 -5.6596336 0.96736944
5.3400335 -5.7200809 0.96736944
5.2962666 -5.7852235 0.96736944
5.2592216 -5.8544097 0.96736944
5.229269 -5.926949 0.96736944
5.2067075 -6.0021157 0.96736944
5.1917634 -6.0791597 0.96736944
5.1845851 -6.1573105 0.96736944
5.1852446 -6.2357874 0.96736944
5.1937361 -6.3138065 0.96736944
5.2099733 -6.3905883 0.96736944
5.2337952 -6.4653654 0.96736944
5.2649632 -6.5373902 0.96736944
5.3031659 -6.6059442 0.96736944
5.348022 -6.6703415 0.96736944
5.3990827 -6.729939 0.96736944
5.4558382 -6.7841415 0.96736944
5.5177217 -6.832407 0.96736944
5.5841141 -6.8742533 0.96736944
5.6543527 -6.9092622 0.96736944
5.7277355 -6.9370842 0.96736944
5.8035293 -6.9574409 0.96736944
5.8809762 -6.9701295 0.96736944
5.9593034 -6.9750228 0.96736944
6.0377278 -6.9720716 0.96736944
6.1154656 -6.9613066 0.96736944
6.1917405 -6.9428339 0.96736944
6.26579 -6.9168386 0.96736944
6.3368745 -6.8835812 0.96736944
6.4042835 -6.8433928 0.96736944
6.4673438 -6.7966757 0.96736944
6.525425 -6.7438965 0.96736944
6.5779471 -6.6855826 0.96736944
6.6243849 -6.6223164 0.96736944
6.6642747 -6.5547304 0.96736944
6.6972179 -6.4834995 0.96736944
6.7228856 -6.4093361 0.96736944
6.7410207 -6.3329802 0.96736944
6.7514424 -6.2551956 0.96736944
6.7400513 -6.1899571 0.88949728
6.7361994 -6.1129837 0.88949728
6.7246823 -6.0367794 0.88949728
6.705615 -5.9621053 0.88949728
6.6791878 -5.889708 0.88949728
6.6456652 -5.8203106 0.88949728
6.6053815 -5.7546067 0.88949728
6.5587401 -5.6932526 0.88949728
6.506206 -5.6368618 0.88949728
6.4483051 -5.5859966 0.88949728
6.3856153 -5.5411663 0.88949728
6.3187633 -5.5028191 0.88949728
6.2484164 -5.4713368 0.88949728
6.1752787 -5.4470348 0.88949728
6.1000795 -5.4301562 0.88949728
6.0235715 -5.4208689 0.88949728
5.9465184 -5.4192667 0.88949728
5.8696899 -5.4253645 0.88949728
5.7938542 -5.4391017 0.88949728
5.719769 -5.4603415 0.88949728
5.6481743 -5.4888711 0.88949728
5.5797853 -5.524406 0.88949728
5.515286 -5.5665908 0.88949728
5.4553199 -5.6150041 0.88949728
5.4004869 -5.6691618 0.88949728
5.3513346 -5.7285233 0.88949728
5.3083539 -5.7924953 0.88949728
5.2719746 -5.8604388 0.88949728
5.2425604 -5.9316745 0.88949728
5.2204041 -6.0054908 0.88949728
5.2057285 -6.0811505 0.88949728
5.198679 -6.157897 0.88949728
5.199327 -6.2349639 0.88949728
5.2076654 -6.3115816 0.88949728
5.2236114 -6.3869834 0.88949728
5.247005 -6.4604168 0.88949728
5.2776132 -6.531148 0.88949728
5.3151298 -6.5984702 0.88949728
5.3591795 -6.6617107 0.88949728
5.4093232 -6.7202373 0.88949728
5.4650588 -6.7734656 0.88949728
5.5258303 -6.8208642 0.88949728
5.5910301 -6.8619585 0.88949728
5.6600065 -6.8963385 0.88949728
5.7320709 -6.9236603 0.88949728
5.8065028 -6.9436517 0.88949728
5.8825583 -6.9561119 0.88949728
5.9594784 -6.9609175 0.88949728
6.0364933 -6.9580197 0.88949728
6.1128349 -6.9474478 0.88949728
6.1877389 -6.929307 0.88949728
6.260458 -6.903779 0.88949728
6.3302655 -6.8711185 0.88949728
6.3964634 -6.8316526 0.88949728
6.4583907 -6.7857752 0.88949728
6.5154285 -6.7339439 0.88949728
6.5670066 -6.6766777 0.88949728
6.6126103 -6.6145482 0.88949728
6.6517835 -6.5481768 0.88949728
6.684135 -6.4782257 0.88949728
6.709341 -6.4053946 0.88949728
6.7271504 -6.3304105 0.88949728
6.7373848 -6.2540236 0.88949728
6.7182412 -6.1899571 0.81342244
6.714498 -6.1151609 0.81342244
6.7033067 -6.0411124 0.81342244
6.6847787 -5.9685507 0.81342244
6.6590991 -5.8982015 0.81342244
6.6265249 -5.8307672 0.81342244
6.5873809 -5.7669215 0.81342244
6.5420589 -5.707303 0.81342244
6.4910111 -5.6525073 0.81342244
6.4347477 -5.6030812 0.81342244
6.3738313 -5.5595193 0.81342244
6.3088703 -5.5222564 0.81342244
6.2405133 -5.4916649 0.81342244
6.1694441 -5.4680505 0.81342244
6.0963726 -5.4516487 0.81342244
6.0220284 -5.4426246 0.81342244
5.947155 -5.4410672 0.81342244
5.8724999 -5.4469929 0.81342244
5.7988095 -5.4603415 0.81342244
5.72682 -5.4809804 0.81342244
5.6572504 -5.5087032 0.81342244
5.5907965 -5.5432329 0.81342244
5.528121 -5.5842242 0.81342244
5.4698515 -5.6312675 0.81342244
5.4165697 -5.6838937 0.81342244
5.3688078 -5.7415762 0.81342244
5.3270431 -5.8037386 0.81342244
5.2916927 -5.86976 0.81342244
5.2631102 -5.9389806 0.81342244
5.241581 -6.0107088 0.81342244
5.2273202 -6.084228 0.81342244
5.2204704 -6.1588039 0.81342244
5.2210999 -6.2336907 0.81342244
5.2292027 -6.3081408 0.81342244
5.2446976 -6.3814101 0.81342244
5.2674294 -6.4527664 0.81342244
5.2971716 -6.5214968 0.81342244
5.3336267 -6.5869145 0.81342244
5.3764305 -6.648366 0.81342244
5.4251556 -6.7052369 0.81342244
5.4793148 -6.7569599 0.81342244
5.5383673 -6.8030171 0.81342244
5.6017227 -6.8429494 0.81342244
5.6687479 -6.8763566 0.81342244
5.7387738 -6.9029059 0.81342244
5.8111 -6.9223313 0.81342244
5.8850045 -6.9344397 0.81342244
5.9597487 -6.9391088 0.81342244
6.034585 -6.9362931 0.81342244
6.108767 -6.9260201 0.81342244
6.1815524 -6.9083929 0.81342244
6.2522144 -6.8835869 0.81342244
6.3200474 -6.8518505 0.81342244
6.3843727 -6.8135009 0.81342244
6.4445481 -6.7689209 0.81342244
6.4999723 -6.7185559 0.81342244
6.5500917 -6.6629095 0.81342244
6.5944052 -6.6025376 0.81342244
6.6324701 -6.5380435 0.81342244
6.6639066 -6.4700713 0.81342244
6.6883998 -6.3993001 0.81342244
6.7057052 -6.3264375 0.81342244
6.7156501 -6.2522111 0.81342244
6.6889453 -6.1899571 0.73990506
6.6853485 -6.1180859 0.73990506
6.6745949 -6.0469322 0.73990506
6.6567912 -5.9772081 0.73990506
6.6321158 -5.9096098 0.73990506
6.6008153 -5.8448124 0.73990506
6.5632019 -5.7834635 0.73990506
6.5196519 -5.7261763 0.73990506
6.4706001 -5.6735229 0.73990506
6.4165373 -5.6260295 0.73990506
6.3580027 -5.5841708 0.73990506
6.2955818 -5.5483651 0.73990506
6.229898 -5.5189695 0.73990506
6.1616077 -5.4962788 0.73990506
6.0913935 -5.4805188 0.73990506
6.0199561 -5.4718471 0.73990506
5.9480104 -5.4703507 0.73990506
5.8762746 -5.4760442 0.73990506
5.8054657 -5.4888711 0.73990506
5.7362909 -5.5087032 0.73990506
5.6694422 -5.5353417 0.73990506
5.6055861 -5.568521 0.73990506
5.545362 -5.6079097 0.73990506
5.4893708 -5.6531138 0.73990506
5.4381723 -5.7036819 0.73990506
5.3922777 -5.759109 0.73990506
5.3521461 -5.8188405 0.73990506
5.3181782 -5.8822803 0.73990506
5.2907133 -5.9487944 0.73990506
5.2700262 -6.0177178 0.73990506
5.2563229 -6.0883622 0.73990506
5.2497411 -6.1600223 0.73990506
5.2503462 -6.2319808 0.73990506
5.258132 -6.3035197 0.73990506
5.2730207 -6.3739238 0.73990506
5.2948637 -6.4424901 0.73990506
5.3234429 -6.5085325 0.73990506
5.3584728 -6.5713925 0.73990506
5.3996029 -6.6304412 0.73990506
5.4464226 -6.6850882 0.73990506
5.4984641 -6.7347889 0.73990506
5.5552073 -6.7790451 0.73990506
5.6160855 -6.8174157 0.73990506
5.68049 -6.8495169 0.73990506
5.7477775 -6.8750277 0.73990506
5.8172755 -6.8936939 0.73990506
5.8882904 -6.9053283 0.73990506
5.9601116 -6.9098153 0.73990506
6.032022 -6.9071097 0.73990506
6.103303 -6.8972383 0.73990506
6.1732426 -6.8803 0.73990506
6.2411413 -6.8564644 0.73990506
6.3063216 -6.8259687 0.73990506
6.3681316 -6.7891188 0.73990506
6.4259543 -6.7462821 0.73990506
6.4792113 -6.6978865 0.73990506
6.5273709 -6.6444163 0.73990506
6.5699515 -6.5864048 0.73990506
6.6065283 -6.5244327 0.73990506
6.636735 -6.4591179 0.73990506
6.6602707 -6.3911142 0.73990506
6.6768994 -6.3211007 0.73990506
6.6864557 -6.2497768 0.73990506
6.6524563 -6.1899571 0.66967976
6.6490421 -6.1217284 0.66967976
6.638833 -6.0541816 0.66967976
6.621932 -5.9879913 0.66967976
6.5985074 -5.9238191 0.66967976
6.5687933 -5.8623061 0.66967976
6.5330863 -5.8040667 0.66967976
6.4917436 -5.7496829 0.66967976
6.445178 -5.6996984 0.66967976
6.3938551 -5.6546125 0.66967976
6.3382874 -5.6148753 0.66967976
6.2790303 -5.5808845 0.66967976
6.2166758 -5.552979 0.66967976
6.1518469 -5.5314379 0.66967976
6.0851912 -5.5164766 0.66967976
6.017375 -5.5082445 0.66967976
5.9490762 -5.506824 0.66967976
5.8809762 -5.5122294 0.66967976
5.813756 -5.524406 0.66967976
5.7480879 -5.5432329 0.66967976
5.6846266 -5.568521 0.66967976
5.6240077 -5.600019 0.66967976
5.5668359 -5.6374111 0.66967976
5.5136824 -5.6803241 0.66967976
5.4650793 -5.7283292 0.66967976
5.4215107 -5.7809467 0.66967976
5.3834133 -5.8376508 0.66967976
5.3511672 -5.8978748 0.66967976
5.3250942 -5.9610176 0.66967976
5.3054552 -6.0264478 0.66967976
5.2924471 -6.0935116 0.66967976
5.2861986 -6.1615396 0.66967976
5.2867727 -6.2298508 0.66967976
5.2941642 -6.2977638 0.66967976
5.3082981 -6.3645992 0.66967976
5.3290343 -6.4296904 0.66967976
5.3561649 -6.4923854 0.66967976
5.3894191 -6.5520592 0.66967976
5.4284644 -6.6081147 0.66967976
5.4729114 -6.6599927 0.66967976
5.522315 -6.7071738 0.66967976
5.5761824 -6.749187 0.66967976
5.6339746 -6.7856126 0.66967976
5.6951146 -6.8160868 0.66967976
5.7589917 -6.8403049 0.66967976
5.8249674 -6.8580246 0.66967976
5.8923826 -6.8690696 0.66967976
5.9605637 -6.8733292 0.66967976
6.0288291 -6.8707604 0.66967976
6.0964975 -6.8613896 0.66967976
6.1628919 -6.8453097 0.66967976
6.2273493 -6.8226819 0.66967976
6.2892261 -6.7937326 0.66967976
6.3479033 -6.75875 0.66967976
6.4027948 -6.7180843 0.66967976
6.4533525 -6.672142 0.66967976
6.4990711 -6.6213818 0.66967976
6.5394936 -6.5663109 0.66967976
6.5742164 -6.5074797 0.66967976
6.6028924 -6.4454756 0.66967976
6.6252351 -6.3809185 0.66967976
6.6410208 -6.3144536 0.66967976
6.6500926 -6.2467446 0.66967976
6.6091385 -6.1899571 0.60344803
6.6059408 -6.1260529 0.60344803
6.5963793 -6.0627875 0.60344803
6.5805492 -6.0007925 0.60344803
6.558609 -5.9406877 0.60344803
6.5307784 -5.8830738 0.60344803
6.4973345 -5.8285255 0.60344803
6.4586124 -5.7775888 0.60344803
6.4149985 -5.7307725 0.60344803
6.3669286 -5.6885443 0.60344803
6.3148828 -5.6513257 0.60344803
6.2593818 -5.6194892 0.60344803
6.2009792 -5.5933528 0.60344803
6.1402593 -5.5731769 0.60344803
6.0778289 -5.559164 0.60344803
6.0143108 -5.5514541 0.60344803
5.9503407 -5.5501232 0.60344803
5.8865576 -5.5551858 0.60344803
5.8235979 -5.5665908 0.60344803
5.7620916 -5.5842242 0.60344803
5.7026534 -5.6079097 0.60344803
5.6458764 -5.6374111 0.60344803
5.5923281 -5.6724334 0.60344803
5.5425439 -5.712626 0.60344803
5.4970212 -5.7575884 0.60344803
5.4562144 -5.8068709 0.60344803
5.4205317 -5.8599811 0.60344803
5.3903294 -5.916388 0.60344803
5.3659091 -5.9755287 0.60344803
5.3475151 -6.0368118 0.60344803
5.335331 -6.0996246 0.60344803
5.3294787 -6.1633406 0.60344803
5.3300166 -6.2273221 0.60344803
5.3369393 -6.2909307 0.60344803
5.3501778 -6.3535299 0.60344803
5.3695993 -6.414495 0.60344803
5.3950105 -6.4732165 0.60344803
5.426157 -6.529108 0.60344803
5.4627275 -6.5816107 0.60344803
5.5043569 -6.6302004 0.60344803
5.5506291 -6.6743908 0.60344803
5.6010823 -6.7137413 0.60344803
5.6552114 -6.747858 0.60344803
5.7124767 -6.7764006 0.60344803
5.772305 -6.7990837 0.60344803
5.8340988 -6.8156805 0.60344803
5.8972411 -6.8260255 0.60344803
5.9611006 -6.8300147 0.60344803
6.0250392 -6.8276091 0.60344803
6.088418 -6.8188319 0.60344803
6.1506042 -6.8037715 0.60344803
6.2109766 -6.782578 0.60344803
6.2689309 -6.7554631 0.60344803
6.3238893 -6.7226982 0.60344803
6.3753018 -6.6846099 0.60344803
6.4226546 -6.6415796 0.60344803
6.4654756 -6.5940366 0.60344803
6.503336 -6.5424562 0.60344803
6.5358582 -6.4873538 0.60344803
6.5627165 -6.4292803 0.60344803
6.583643 -6.3688149 0.60344803
6.5984282 -6.3065629 0.60344803
6.606925 -6.2431455 0.60344803
6.5594254 -6.1899571 0.54187173
6.5564756 -6.1310163 0.54187173
6.5476565 -6.0726643 0.54187173
6.5330563 -6.0154839 0.54187173
6.5128202 -5.9600472 0.54187173
6.4871507 -5.9069076 0.54187173
6.4563046 -5.856596 0.54187173
6.4205894 -5.8096151 0.54187173
6.380363 -5.7664347 0.54187173
6.3360262 -5.7274861 0.54187173
6.2880225 -5.6931581 0.54187173
6.2368321 -5.663794 0.54187173
6.1829653 -5.6396875 0.54187173
6.1269612 -5.6210785 0.54187173
6.0693793 -5.6081538 0.54187173
6.0107946 -5.6010427 0.54187173
5.9517922 -5.5998154 0.54187173
5.8929625 -5.6044846 0.54187173
5.8348932 -5.6150041 0.54187173
5.7781634 -5.6312675 0.54187173
5.7233415 -5.6531138 0.54187173
5.6709738 -5.6803241 0.54187173
5.6215844 -5.712626 0.54187173
5.5756669 -5.7496977 0.54187173
5.5336795 -5.7911682 0.54187173
5.4960418 -5.8366232 0.54187173
5.4631305 -5.8856082 0.54187173
5.4352736 -5.9376345 0.54187173
5.4127502 -5.9921818 0.54187173
5.3957844 -6.0487056 0.54187173
5.3845468 -6.1066403 0.54187173
5.379149 -6.1654077 0.54187173
5.3796449 -6.2244205 0.54187173
5.3860302 -6.2830887 0.54187173
5.3982401 -6.3408265 0.54187173
5.4161539 -6.3970566 0.54187173
5.4395914 -6.4512177 0.54187173
5.4683185 -6.5027685 0.54187173
5.502049 -6.5511932 0.54187173
5.5404453 -6.5960093 0.54187173
5.5831242 -6.6367679 0.54187173
5.6296587 -6.6730623 0.54187173
5.679584 -6.7045293 0.54187173
5.7324018 -6.730855 0.54187173
5.7875834 -6.7517767 0.54187173
5.8445783 -6.7670841 0.54187173
5.9028163 -6.7766256 0.54187173
5.9617162 -6.7803054 0.54187173
6.0206895 -6.7780862 0.54187173
6.0791464 -6.7699909 0.54187173
6.1365027 -6.7561002 0.54187173
6.1921859 -6.7365527 0.54187173
6.2456398 -6.7115436 0.54187173
6.2963295 -6.6813231 0.54187173
6.343749 -6.6461935 0.54187173
6.3874245 -6.6065049 0.54187173
6.4269199 -6.562654 0.54187173
6.4618397 -6.51508 0.54187173
6.4918361 -6.4642568 0.54187173
6.5166082 -6.4106932 0.54187173
6.5359097 -6.3549242 0.54187173
6.5495467 -6.2975068 0.54187173
6.5573835 -6.2390146 0.54187173
6.5038128 -6.1899571 0.48556614
6.5011415 -6.1365681 0.48556614
6.4931531 -6.0837126 0.48556614
6.479928 -6.0319185 0.48556614
6.4615979 -5.9817038 0.48556614
6.4383464 -5.9335694 0.48556614
6.4104056 -5.8879972 0.48556614
6.3780551 -5.8454418 0.48556614
6.3416176 -5.8063288 0.48556614
6.3014569 -5.7710485 0.48556614
6.2579751 -5.7399545 0.48556614
6.2116065 -5.713356 0.48556614
6.1628137 -5.6915202 0.48556614
6.1120849 -5.6746645 0.48556614
6.059927 -5.6629572 0.48556614
6.0068607 -5.6565156 0.48556614
5.9534163 -5.6554041 0.48556614
5.9001279 -5.6596336 0.48556614
5.8475285 -5.6691618 0.48556614
5.7961426 -5.6838937 0.48556614
5.7464843 -5.7036819 0.48556614
5.6990495 -5.7283292 0.48556614
5.6543126 -5.7575884 0.48556614
5.61272 -5.7911682 0.48556614
5.5746875 -5.828732 0.48556614
5.5405955 -5.8699055 0.48556614
5.5107841 -5.9142766 0.48556614
5.4855514 -5.9614024 0.48556614
5.4651489 -6.0108113 0.48556614
5.4497819 -6.0620108 0.48556614
5.4396024 -6.1144886 0.48556614
5.4347134 -6.1677203 0.48556614
5.4351625 -6.2211742 0.48556614
5.4409461 -6.2743158 0.48556614
5.4520063 -6.3266153 0.48556614
5.4682322 -6.3775487 0.48556614
5.4894619 -6.4266081 0.48556614
5.5154834 -6.4733028 0.48556614
5.5460367 -6.5171666 0.48556614
5.5808163 -6.5577607 0.48556614
5.6194749 -6.5946803 0.48556614
5.6616263 -6.6275558 0.48556614
5.7068486 -6.6560593 0.48556614
5.7546911 -6.6799049 0.48556614
5.8046751 -6.6988559 0.48556614
5.8563013 -6.7127218 0.48556614
5.9090538 -6.721364 0.48556614
5.9624057 -6.7246971 0.48556614
6.0158234 -6.7226872 0.48556614
6.0687737 -6.7153544 0.48556614
6.1207275 -6.7027721 0.48556614
6.1711659 -6.6850657 0.48556614
6.2195845 -6.6624126 0.48556614
6.2654996 -6.6350389 0.48556614
6.3084526 -6.6032181 0.48556614
6.3480139 -6.5672679 0.48556614
6.3837891 -6.5275478 0.48556614
6.4154196 -6.4844546 0.48556614
6.4425902 -6.4384193 0.48556614
6.4650292 -6.3899012 0.48556614
6.4825125 -6.339385 0.48556614
6.4948649 -6.2873759 0.48556614
6.5019636 -6.2343936 0.48556614
6.4428573 -6.1899571 0.43509382
6.4404902 -6.1426535 0.43509382
6.4334126 -6.0958223 0.43509382
6.4216948 -6.049932 0.43509382
6.4054542 -6.0054407 0.43509382
6.3848529 -5.9627929 0.43509382
6.3600969 -5.9224153 0.43509382
6.3314333 -5.8847103 0.43509382
6.299149 -5.8500557 0.43509382
6.2635665 -5.8187966 0.43509382
6.2250409 -5.7912469 0.43509382
6.1839571 -5.7676802 0.43509382
6.1407261 -5.748333 0.43509382
6.0957794 -5.7333984 0.43509382
6.0495663 -5.7230258 0.43509382
6.0025487 -5.7173185 0.43509382
5.9551964 -5.7163339 0.43509382
5.9079819 -5.7200809 0.43509382
5.8613777 -5.7285233 0.43509382
5.8158488 -5.7415762 0.43509382
5.7718506 -5.759109 0.43509382
5.7298226 -5.7809467 0.43509382
5.6901851 -5.8068709 0.43509382
5.6533332 -5.8366232 0.43509382
5.6196361 -5.8699055 0.43509382
5.5894294 -5.9063854 0.43509382
5.5630159 -5.9456992 0.43509382
5.5406594 -5.9874535 0.43509382
5.522583 -6.0312309 0.43509382
5.5089669 -6.0765944 0.43509382
5.499948 -6.1230907 0.43509382
5.495616 -6.1702547 0.43509382
5.4960141 -6.2176161 0.43509382
5.5011387 -6.2647004 0.43509382
5.5109382 -6.3110385 0.43509382
5.5253143 -6.3561668 0.43509382
5.5441246 -6.3996339 0.43509382
5.5671802 -6.4410067 0.43509382
5.5942507 -6.4798703 0.43509382
5.6250663 -6.5158377 0.43509382
5.659318 -6.5485492 0.43509382
5.6966648 -6.5776772 0.43509382
5.736733 -6.6029315 0.43509382
5.7791224 -6.6240597 0.43509382
5.8234091 -6.6408501 0.43509382
5.8691506 -6.6531358 0.43509382
5.9158902 -6.6607933 0.43509382
5.9631605 -6.6637464 0.43509382
6.0104899 -6.6619654 0.43509382
6.057405 -6.6554685 0.43509382
6.1034369 -6.6443205 0.43509382
6.1481261 -6.6286321 0.43509382
6.1910257 -6.608561 0.43509382
6.2317076 -6.5843072 0.43509382
6.2697644 -6.5561137 0.43509382
6.3048167 -6.524261 0.43509382
6.336514 -6.4890685 0.43509382
6.3645391 -6.4508872 0.43509382
6.3886127 -6.410099 0.43509382
6.408494 -6.3671107 0.43509382
6.4239845 -6.3223529 0.43509382
6.4349294 -6.2762718 0.43509382
6.4412189 -6.2293286 0.43509382
6.3771672 -6.1899571 0.39095896
6.3751283 -6.1492114 0.39095896
6.3690319 -6.1088729 0.39095896
6.3589387 -6.069345 0.39095896
6.3449497 -6.0310216 0.39095896
6.3272047 -5.9942865 0.39095896
6.3058805 -5.9595065 0.39095896
6.2811909 -5.9270291 0.39095896
6.2533827 -5.8971786 0.39095896
6.222733 -5.8702536 0.39095896
6.1895485 -5.8465228 0.39095896
6.1541605 -5.8262239 0.39095896
6.1169229 -5.8095589 0.39095896
6.0782075 -5.7966948 0.39095896
6.0384016 -5.7877603 0.39095896
5.9979019 -5.7828441 0.39095896
5.9571142 -5.7819958 0.39095896
5.9164457 -5.7852235 0.39095896
5.8763022 -5.7924953 0.39095896
5.8370857 -5.8037386 0.39095896
5.7991872 -5.8188405 0.39095896
5.7629862 -5.8376508 0.39095896
5.7288437 -5.8599811 0.39095896
5.6971006 -5.8856082 0.39095896
5.6680751 -5.9142766 0.39095896
5.6420565 -5.9456992 0.39095896
5.6193051 -5.9795628 0.39095896
5.6000481 -6.0155282 0.39095896
5.5844774 -6.0532365 0.39095896
5.5727491 -6.0923109 0.39095896
5.5649805 -6.1323609 0.39095896
5.5612493 -6.172986 0.39095896
5.5615921 -6.2137814 0.39095896
5.5660062 -6.2543383 0.39095896
5.5744472 -6.2942519 0.39095896
5.5868301 -6.3331237 0.39095896
5.6030326 -6.3705649 0.39095896
5.6228919 -6.4062018 0.39095896
5.6462092 -6.4396777 0.39095896
5.6727524 -6.4706583 0.39095896
5.7022562 -6.4988346 0.39095896
5.7344251 -6.5239248 0.39095896
5.7689385 -6.5456781 0.39095896
5.8054509 -6.5638766 0.39095896
5.8435974 -6.5783396 0.39095896
5.882998 -6.5889215 0.39095896
5.9232574 -6.5955176 0.39095896
5.9639745 -6.5980616 0.39095896
6.0047421 -6.5965276 0.39095896
6.0451531 -6.5909309 0.39095896
6.0848036 -6.5813284 0.39095896
6.1232972 -6.5678153 0.39095896
6.1602492 -6.5505271 0.39095896
6.1952906 -6.5296354 0.39095896
6.2280717 -6.5053506 0.39095896
6.2582645 -6.4779139 0.39095896
6.2855673 -6.4476004 0.39095896
6.3097072 -6.4147124 0.39095896
6.3304434 -6.3795791 0.39095896
6.347568 -6.3425508 0.39095896
6.3609109 -6.303998 0.39095896
6.3703384 -6.2643056 0.39095896
6.3757558 -6.2238703 0.39095896
6.3073993 -6.1899571 0.35360271
6.3057089 -6.1561766 0.35360271
6.3006544 -6.1227341 0.35360271
6.2922869 -6.0899625 0.35360271
6.2806892 -6.0581903 0.35360271
6.2659774 -6.0277352 0.35360271
6.2482986 -5.9989004 0.35360271
6.2278295 -5.9719748 0.35360271
6.2047749 -5.947227 0.35360271
6.1793647 -5.9249048 0.35360271
6.1518526 -5.9052305 0.35360271
6.1225142 -5.8884015 0.35360271
6.0916419 -5.8745852 0.35360271
6.0595446 -5.8639202 0.35360271
6.0265431 -5.856513 0.35360271
5.9929671 -5.852437 0.35360271
5.9591517 -5.8517337 0.35360271
5.9254351 -5.8544097 0.35360271
5.8921537 -5.8604388 0.35360271
5.8596411 -5.86976 0.35360271
5.8282213 -5.8822803 0.35360271
5.7982082 -5.8978748 0.35360271
5.7699022 -5.916388 0.35360271
5.7435856 -5.9376345 0.35360271
5.7195215 -5.9614024 0.35360271
5.6979508 -5.9874535 0.35360271
5.6790886 -6.0155282 0.35360271
5.6631231 -6.0453453 0.35360271
5.6502142 -6.0766077 0.35360271
5.640491 -6.1090026 0.35360271
5.6340504 -6.1422067 0.35360271
5.6309566 -6.1758871 0.35360271
5.6312413 -6.2097087 0.35360271
5.6349006 -6.2433329 0.35360271
5.6418986 -6.2764235 0.35360271
5.6521649 -6.3086505 0.35360271
5.6655974 -6.3396912 0.35360271
5.6820621 -6.369236 0.35360271
5.7013936 -6.3969898 0.35360271
5.7233996 -6.4226747 0.35360271
5.7478595 -6.4460344 0.35360271
5.7745295 -6.4668355 0.35360271
5.803143 -6.48487 0.35360271
5.8334136 -6.499958 0.35360271
5.8650398 -6.5119481 0.35360271
5.8977046 -6.5207214 0.35360271
5.9310822 -6.5261898 0.35360271
5.964839 -6.5282989 0.35360271
5.9986377 -6.5270271 0.35360271
6.0321407 -6.5223875 0.35360271
6.0650129 -6.5144262 0.35360271
6.0969267 -6.5032234 0.35360271
6.127562 -6.4888902 0.35360271
6.1566133 -6.47157 0.35360271
6.1837907 -6.451436 0.35360271
6.2088223 -6.42869 0.35360271
6.2314577 -6.4035583 0.35360271
6.251471 -6.3762922 0.35360271
6.2686625 -6.3471646 0.35360271
6.2828603 -6.3164659 0.35360271
6.2939219 -6.2845035 0.35360271
6.3017378 -6.251596 0.35360271
6.3062291 -6.2180729 0.35360271
6.2342505 -6.1899571 0.32339823
6.2329259 -6.1634793 0.32339823
6.2289639 -6.1372662 0.32339823
6.222405 -6.1115794 0.32339823
6.2133145 -6.0866761 0.32339823
6.2017832 -6.0628042 0.32339823
6.1879263 -6.0402031 0.32339823
6.1718826 -6.0190983 0.32339823
6.1538115 -5.9997005 0.32339823
6.1338944 -5.982204 0.32339823
6.11233 -5.966783 0.32339823
6.089334 -5.9535923 0.32339823
6.065136 -5.9427629 0.32339823
6.0399776 -5.9344034 0.32339823
6.0141101 -5.9285975 0.32339823
5.9877925 -5.9254026 0.32339823
5.9612875 -5.9248514 0.32339823
5.9348598 -5.926949 0.32339823
5.9087734 -5.9316745 0.32339823
5.8832893 -5.9389806 0.32339823
5.8586617 -5.9487944 0.32339823
5.8351369 -5.9610176 0.32339823
5.8129501 -5.9755287 0.32339823
5.7923226 -5.9921823 0.32339823
5.7734613 -6.0108113 0.32339823
5.7565536 -6.0312309 0.32339823
5.7417688 -6.0532365 0.32339823
5.7292547 -6.0766077 0.32339823
5.7191367 -6.1011119 0.32339823
5.7115154 -6.1265035 0.32339823
5.7064672 -6.1525292 0.32339823
5.7040424 -6.1789289 0.32339823
5.7042651 -6.2054386 0.32339823
5.7071333 -6.2317939 0.32339823
5.7126188 -6.257731 0.32339823
5.7206659 -6.2829914 0.32339823
5.7311945 -6.3073215 0.32339823
5.7440996 -6.3304796 0.32339823
5.7592521 -6.3522329 0.32339823
5.7765007 -6.3723655 0.32339823
5.7956729 -6.3906751 0.32339823
5.8165774 -6.4069796 0.32339823
5.839005 -6.4211154 0.32339823
5.8627319 -6.4329414 0.32339823
5.8875208 -6.4423399 0.32339823
5.9131241 -6.4492164 0.32339823
5.9392862 -6.4535027 0.32339823
5.9657454 -6.4551558 0.32339823
5.9922376 -6.4541588 0.32339823
6.0184979 -6.4505224 0.32339823
6.0442638 -6.4442821 0.32339823
6.0692782 -6.4355011 0.32339823
6.0932908 -6.4242663 0.32339823
6.1160617 -6.4106908 0.32339823
6.1373639 -6.3949094 0.32339823
6.1569839 -6.3770804 0.32339823
6.174726 -6.3573818 0.32339823
6.190413 -6.33601 0.32339823
6.2038879 -6.313179 0.32339823
6.2150164 -6.2891169 0.32339823
6.2236867 -6.2640643 0.32339823
6.2298131 -6.2382708 0.32339823
6.2333336 -6.2119951 0.32339823
6.158452 -6.1899571 0.30064738
6.1575055 -6.1710467 0.30064738
6.154676 -6.1523252 0.30064738
6.149992 -6.1339798 0.30064738
6.1434994 -6.1161933 0.30064738
6.1352634 -6.0991445 0.30064738
6.1253672 -6.0830026 0.30064738
6.1139083 -6.0679293 0.30064738
6.1010022 -6.0540752 0.30064738
6.0867772 -6.0415792 0.30064738
6.0713758 -6.0305657 0.30064738
6.0549521 -6.0211444 0.30064738
6.0376697 -6.0134101 0.30064738
6.0197015 -6.0074396 0.30064738
6.0012269 -6.003293 0.30064738
5.9824309 -6.0010114 0.30064738
5.963501 -6.000618 0.30064738
5.9446259 -6.0021157 0.30064738
5.9259949 -6.0054908 0.30064738
5.907794 -6.0107088 0.30064738
5.8902054 -6.0177178 0.30064738
5.8734035 -6.0264478 0.30064738
5.8575578 -6.0368118 0.30064738
5.8428259 -6.0487056 0.30064738
5.8293548 -6.0620108 0.30064738
5.8172789 -6.0765944 0.30064738
5.8067198 -6.0923109 0.30064738
5.7977824 -6.1090026 0.30064738
5.790556 -6.1265035 0.30064738
5.7851129 -6.1446385 0.30064738
5.7815075 -6.1632261 0.30064738
5.7797756 -6.1820807 0.30064738
5.7799349 -6.201014 0.30064738
5.7819834 -6.2198372 0.30064738
5.7859006 -6.2383614 0.30064738
5.7916479 -6.2564025 0.30064738
5.7991676 -6.2737794 0.30064738
5.8083844 -6.2903185 0.30064738
5.8192062 -6.3058553 0.30064738
5.8315253 -6.3202338 0.30064738
5.8452182 -6.3333106 0.30064738
5.8601484 -6.344955 0.30064738
5.8761663 -6.355051 0.30064738
5.8931122 -6.3634973 0.30064738
5.9108167 -6.3702097 0.30064738
5.9291024 -6.3751211 0.30064738
5.9477873 -6.3781824 0.30064738
5.9666848 -6.3793626 0.30064738
5.9856052 -6.3786507 0.30064738
6.0043607 -6.3760533 0.30064738
6.0227628 -6.3715968 0.30064738
6.040628 -6.3653255 0.30064738
6.0577779 -6.3573017 0.30064738
6.0740409 -6.3476057 0.30064738
6.0892549 -6.3363347 0.30064738
6.1032677 -6.3236012 0.30064738
6.1159391 -6.3095322 0.30064738
6.1271429 -6.2942686 0.30064738
6.1367669 -6.2779627 0.30064738
6.1447148 -6.2607775 0.30064738
6.150907 -6.2428846 0.30064738
6.1552825 -6.224463 0.30064738
6.1577969 -6.2056966 0.30064738
6.0807605 -6.1899571 0.28557742
6.0802026 -6.178803 0.28557742
6.0785336 -6.1677599 0.28557742
6.0757704 -6.156939 0.28557742
6.0719409 -6.1464481 0.28557742
6.0670829 -6.1363916 0.28557742
6.0612454 -6.1268702 0.28557742
6.0544868 -6.1179795 0.28557742
6.046874 -6.109808 0.28557742
6.0384836 -6.102437 0.28557742
6.0293989 -6.0959406 0.28557742
6.0197115 -6.0903835 0.28557742
6.0095177 -6.0858216 0.28557742
5.998919 -6.0822997 0.28557742
5.9880219 -6.079854 0.28557742
5.9769354 -6.0785084 0.28557742
5.9657693 -6.0782762 0.28557742
5.9546361 -6.0791597 0.28557742
5.9436469 -6.0811505 0.28557742
5.9329109 -6.084228 0.28557742
5.9225364 -6.0883622 0.28557742
5.9126258 -6.0935116 0.28557742
5.9032793 -6.0996246 0.28557742
5.8945894 -6.1066403 0.28557742
5.8866439 -6.1144886 0.28557742
5.8795209 -6.1230907 0.28557742
5.8732929 -6.1323609 0.28557742
5.868021 -6.1422067 0.28557742
5.8637586 -6.1525292 0.28557742
5.860548 -6.1632261 0.28557742
5.8584213 -6.17419 0.28557742
5.8573995 -6.1853113 0.28557742
5.8574934 -6.1964793 0.28557742
5.8587017 -6.207582 0.28557742
5.8610125 -6.2185082 0.28557742
5.8644028 -6.2291498 0.28557742
5.8688378 -6.2393994 0.28557742
5.8742747 -6.249155 0.28557742
5.8806577 -6.2583194 0.28557742
5.8879242 -6.2668004 0.28557742
5.8960009 -6.2745137 0.28557742
5.9048071 -6.2813821 0.28557742
5.9142556 -6.2873373 0.28557742
5.9242506 -6.2923193 0.28557742
5.9346938 -6.2962785 0.28557742
5.9454799 -6.2991753 0.28557742
5.956501 -6.300981 0.28557742
5.9676476 -6.3016772 0.28557742
5.9788079 -6.3012576 0.28557742
5.9898705 -6.2997255 0.28557742
6.0007248 -6.2970967 0.28557742
6.0112624 -6.2933974 0.28557742
6.0213785 -6.2886648 0.28557742
6.0309711 -6.2829456 0.28557742
6.0399451 -6.2762976 0.28557742
6.0482106 -6.2687864 0.28557742
6.0556846 -6.260488 0.28557742
6.0622931 -6.2514849 0.28557742
6.0679698 -6.2418671 0.28557742
6.0726576 -6.2317305 0.28557742
6.0763102 -6.2211761 0.28557742
6.0788913 -6.2103105 0.28557742
6.0803742 -6.1992412 0.28557742
6.0019531 -6.1899571 0.27833885
6.0017886 -6.1866703 0.27833885
6.0012965 -6.1834168 0.27833885
6.0004826 -6.1802282 0.27833885
5.9993544 -6.1771369 0.27833885
5.9979229 -6.1741738 0.27833885
5.9962029 -6.1713686 0.27833885
5.9942112 -6.1687489 0.27833885
5.9919682 -6.1663408 0.27833885
5.9894958 -6.1641693 0.27833885
5.9868193 -6.1622548 0.27833885
5.9839649 -6.1606178 0.27833885
5.9809608 -6.1592736 0.27833885
5.977838 -6.1582355 0.27833885
5.9746275 -6.157515 0.27833885
5.9713607 -6.1571183 0.27833885
5.9680705 -6.1570501 0.27833885
5.9647899 -6.1573105 0.27833885
5.9615521 -6.157897 0.27833885
5.9583888 -6.1588039 0.27833885
5.9553318 -6.1600223 0.27833885
5.9524117 -6.1615396 0.27833885
5.9496579 -6.1633406 0.27833885
5.9470973 -6.1654077 0.27833885
5.944756 -6.1677203 0.27833885
5.9426575 -6.1702547 0.27833885
5.9408221 -6.172986 0.27833885
5.9392686 -6.1758871 0.27833885
5.9380126 -6.1789289 0.27833885
5.937067 -6.1820807 0.27833885
5.93644 -6.1853113 0.27833885
5.9361391 -6.1885881 0.27833885
5.9361668 -6.1918788 0.27833885
5.936523 -6.1951504 0.27833885
5.9372039 -6.19837 0.27833885
5.9382029 -6.2015052 0.27833885
5.9395094 -6.2045255 0.27833885
5.9411116 -6.2073998 0.27833885
5.9429922 -6.2101002 0.27833885
5.9451332 -6.2125993 0.27833885
5.9475131 -6.2148719 0.27833885
5.9501081 -6.2168956 0.27833885
5.9528918 -6.2186503 0.27833885
5.9558372 -6.2201185 0.27833885
5.9589138 -6.2212849 0.27833885
5.9620919 -6.2221384 0.27833885
5.9653397 -6.2226706 0.27833885
5.9686241 -6.2228756 0.27833885
5.9719124 -6.2227521 0.27833885
5.975172 -6.2223005 0.27833885
5.9783702 -6.2215261 0.27833885
5.9814754 -6.2204361 0.27833885
5.9844556 -6.2190413 0.27833885
5.9872823 -6.2173562 0.27833885
5.9899263 -6.2153974 0.27833885
5.992362 -6.2131844 0.27833885
5.9945641 -6.2107391 0.27833885
5.9965115 -6.2080865 0.27833885
5.9981842 -6.2052526 0.27833885
5.9995656 -6.2022657 0.27833885
6.0006418 -6.1991558 0.27833885
6.0014019 -6.1959543 0.27833885
6.0018392 -6.1926928 0.27833885
8.9329643 1.3348684 0.79131705
8.9329643 1.3348684 0.89131707
8.9329643 1.3348684 0.99131709
8.9329643 1.3348684 1.0913171
8.9329643 1.3348684 1.1913171
8.9329643 1.3348684 1.2913171
8.9329643 1.3348684 1.3913171
8.9329643 1.3348684 1.4913172
8.9329643 1.3348684 1.5913172
8.9329643 1.3348684 1.6913172
8.9329643 1.3348684 1.7913172
8.9329643 1.3348684 1.8913172
8.9329643 1.3348684 1.9913173
8.9329643 1.3348684 2.0913172
8.9329643 1.3348684 2.1913171
8.9329643 1.3348684 2.291317
8.9303741 1.3866392 0.79131705
8.9303741 1.3866392 0.89131707
8.9303741 1.3866392 0.99131709
8.9303741 1.3866392 1.0913171
8.9303741 1.3866392 1.1913171
8.9303741 1.3866392 1.2913171
8.9303741 1.3866392 1.3913171
8.9303741 1.3866392 1.4913172
8.9303741 1.3866392 1.5913172
8.9303741 1.3866392 1.6913172
8.9303741 1.3866392 1.7913172
8.9303741 1.3866392 1.8913172
8.9303741 1.3866392 1.9913173
8.9303741 1.3866392 2.0913172
8.9303741 1.3866392 2.1913171
8.9303741 1.3866392 2.291317
8.9226274 1.4378928 0.79131705
8.9226274 1.4378928 0.89131707
8.9226274 1.4378928 0.99131709
8.9226274 1.4378928 1.0913171
8.9226274 1.4378928 1.1913171
8.9226274 1.4378928 1.2913171
8.9226274 1.4378928 1.3913171
8.9226274 1.4378928 1.4913172
8.9226274 1.4378928 1.5913172
8.9226274 1.4378928 1.6913172
8.9226274 1.4378928 1.7913172
8.9226274 1.4378928 1.8913172
8.9226274 1.4378928 1.9913173
8.9226274 1.4378928 2.0913172
8.9226274 1.4378928 2.1913171
8.9226274 1.4378928 2.291317
8.9098034 1.488117 0.79131705
8.9098034 1.488117 0.89131707
8.9098034 1.488117 0.99131709
8.9098034 1.488117 1.0913171
8.9098034 1.488117 1.1913171
8.9098034 1.488117 1.2913171
8.9098034 1.488117 1.3913171
8.9098034 1.488117 1.4913172
8.9098034 1.488117 1.5913172
8.9098034 1.488117 1.6913172
