# .PCD v0.7 - Point Cloud Data file format
VERSION 0.7
FIELDS x y z
SIZE 4 4 4
TYPE F F F
COUNT 1 1 1
WIDTH 1493
HEIGHT 1
VIEWPOINT 0 0 0 1 0 0 0
POINTS 1493
DATA ascii
25.568817 -14.633626 0.45527366
25.536188 -14.580407 0.45527366
25.498409 -14.530711 0.45527366
25.455858 -14.485036 0.45527366
25.40896 -14.443836 0.45527366
25.358183 -14.407524 0.45527366
25.304033 -14.376464 0.45527366
25.247053 -14.350964 0.45527366
25.187813 -14.33128 0.45527366
25.126904 -14.317608 0.45527366
25.064934 -14.310085 0.45527366
25.002522 -14.308787 0.45527366
24.940292 -14.313726 0.45527366
24.878868 -14.324854 0.45527366
24.818859 -14.342057 0.45527366
24.76087 -14.365166 0.45527366
24.705477 -14.393949 0.45527366
24.653233 -14.428118 0.45527366
24.604662 -14.467331 0.45527366
24.560247 -14.511198 0.45527366
24.520435 -14.559279 0.45527366
24.485622 -14.611095 0.45527366
24.456156 -14.666128 0.45527366
24.432329 -14.723828 0.45527366
24.414385 -14.783618 0.45527366
24.402496 -14.844901 0.45527366
24.396788 -14.907064 0.45527366
24.397312 -14.969487 0.45527366
24.404066 -15.031546 0.45527366
24.416983 -15.09262 0.45527366
24.43593 -15.1521 0.45527366
24.460722 -15.20939 0.45527366
24.49111 -15.26392 0.45527366
24.526789 -15.315143 0.45527366
24.567404 -15.362549 0.45527366
24.612549 -15.405663 0.45527366
24.661774 -15.444055 0.45527366
24.714584 -15.47734 0.45527366
24.770452 -15.505187 0.45527366
24.828823 -15.527317 0.45527366
24.889112 -15.543509 0.45527366
24.950716 -15.553602 0.45527366
25.01302 -15.557495 0.45527366
25.075401 -15.555147 0.45527366
25.137236 -15.546584 0.45527366
25.197906 -15.531891 0.45527366
25.256807 -15.511213 0.45527366
25.313351 -15.484759 0.45527366
25.366968 -15.452793 0.45527366
25.41713 -15.415633 0.45527366
25.463327 -15.373651 0.45527366
25.505106 -15.327266 0.45527366
25.542044 -15.276942 0.45527366
25.573772 -15.223183 0.45527366
25.599977 -15.166524 0.45527366
25.620394 -15.107532 0.45527366
25.634819 -15.046797 0.45527366
25.643108 -14.984924 0.45527366
25.652903 -14.933032 0.39238849
25.649744 -14.869923 0.39238849
25.640301 -14.807445 0.39238849
25.624668 -14.746221 0.39238849
25.603001 -14.686864 0.39238849
25.575516 -14.629966 0.39238849
25.542488 -14.576097 0.39238849
25.504248 -14.525794 0.39238849
25.461176 -14.47956 0.39238849
25.413704 -14.437857 0.39238849
25.362307 -14.401101 0.39238849
25.307495 -14.36966 0.39238849
25.249821 -14.343849 0.39238849
25.189856 -14.323924 0.39238849
25.128201 -14.310086 0.39238849
25.065474 -14.302471 0.39238849
25.002298 -14.301158 0.39238849
24.93931 -14.306157 0.39238849
24.877132 -14.31742 0.39238849
24.816391 -14.334834 0.39238849
24.757692 -14.358225 0.39238849
24.701622 -14.38736 0.39238849
24.648741 -14.421946 0.39238849
24.599575 -14.461639 0.39238849
24.554619 -14.506042 0.39238849
24.51432 -14.554711 0.39238849
24.47908 -14.607161 0.39238849
24.449253 -14.662867 0.39238849
24.425137 -14.721271 0.39238849
24.406973 -14.781792 0.39238849
24.394939 -14.843823 0.39238849
24.38916 -14.906747 0.39238849
24.389692 -14.969933 0.39238849
24.396528 -15.032749 0.39238849
24.409601 -15.09457 0.39238849
24.428782 -15.154777 0.39238849
24.453876 -15.212768 0.39238849
24.484636 -15.267964 0.39238849
24.520752 -15.319814 0.39238849
24.561863 -15.367799 0.39238849
24.607559 -15.41144 0.39238849
24.657385 -15.4503 0.39238849
24.710842 -15.483993 0.39238849
24.767393 -15.51218 0.39238849
24.826477 -15.534581 0.39238849
24.887503 -15.550972 0.39238849
24.94986 -15.561188 0.39238849
25.012924 -15.565127 0.39238849
25.076069 -15.562752 0.39238849
25.138659 -15.554084 0.39238849
25.200071 -15.53921 0.39238849
25.259693 -15.518281 0.39238849
25.316927 -15.491504 0.39238849
25.371201 -15.459146 0.39238849
25.421974 -15.421532 0.39238849
25.468739 -15.379036 0.39238849
25.511026 -15.332085 0.39238849
25.548416 -15.281146 0.39238849
25.580532 -15.226729 0.39238849
25.607058 -15.169378 0.39238849
25.627724 -15.109665 0.39238849
25.642324 -15.048187 0.39238849
25.650715 -14.985559 0.39238849
25.654219 -14.933032 0.32905543
25.651054 -14.869791 0.32905543
25.641592 -14.807182 0.32905543
25.625927 -14.745831 0.32905543
25.604214 -14.686351 0.32905543
25.576672 -14.629334 0.32905543
25.543575 -14.575353 0.32905543
25.505255 -14.524945 0.32905543
25.462095 -14.478615 0.32905543
25.414524 -14.436825 0.32905543
25.363018 -14.399993 0.32905543
25.308094 -14.368486 0.32905543
25.250298 -14.342621 0.32905543
25.190208 -14.322655 0.32905543
25.128426 -14.308787 0.32905543
25.065567 -14.301158 0.32905543
25.00226 -14.299841 0.32905543
24.93914 -14.304851 0.32905543
24.876833 -14.316137 0.32905543
24.815966 -14.333588 0.32905543
24.757145 -14.357027 0.32905543
24.700956 -14.386223 0.32905543
24.647964 -14.420881 0.32905543
24.598698 -14.460656 0.32905543
24.553648 -14.505152 0.32905543
24.513264 -14.553923 0.32905543
24.477951 -14.606482 0.32905543
24.448063 -14.662303 0.32905543
24.423897 -14.72083 0.32905543
24.405693 -14.781476 0.32905543
24.393637 -14.843637 0.32905543
24.387844 -14.906692 0.32905543
24.388376 -14.970009 0.32905543
24.395227 -15.032957 0.32905543
24.408329 -15.094907 0.32905543
24.427547 -15.155239 0.32905543
24.452696 -15.213351 0.32905543
24.483519 -15.268662 0.32905543
24.519711 -15.32062 0.32905543
24.560907 -15.368705 0.32905543
24.606699 -15.412436 0.32905543
24.656628 -15.451378 0.32905543
24.710196 -15.485141 0.32905543
24.766867 -15.513388 0.32905543
24.826073 -15.535834 0.32905543
24.887226 -15.552259 0.32905543
24.949713 -15.562496 0.32905543
25.012909 -15.566444 0.32905543
25.076183 -15.564064 0.32905543
25.138905 -15.555378 0.32905543
25.200445 -15.540474 0.32905543
25.260191 -15.519501 0.32905543
25.317543 -15.492667 0.32905543
25.371931 -15.460242 0.32905543
25.42281 -15.422549 0.32905543
25.469671 -15.379966 0.32905543
25.512047 -15.332916 0.32905543
25.549515 -15.281872 0.32905543
25.581699 -15.227342 0.32905543
25.608278 -15.16987 0.32905543
25.628988 -15.110033 0.32905543
25.64362 -15.048427 0.32905543
25.652029 -14.985668 0.32905543
25.649206 -14.933032 0.26590726
25.646067 -14.870292 0.26590726
25.636681 -14.808179 0.26590726
25.621138 -14.747313 0.26590726
25.599598 -14.688302 0.26590726
25.572273 -14.631738 0.26590726
25.53944 -14.578183 0.26590726
25.501423 -14.528173 0.26590726
25.458603 -14.48221 0.26590726
25.411407 -14.440751 0.26590726
25.36031 -14.40421 0.26590726
25.30582 -14.372953 0.26590726
25.248482 -14.347293 0.26590726
25.188868 -14.327484 0.26590726
25.127573 -14.313726 0.26590726
25.065212 -14.306157 0.26590726
25.002407 -14.304851 0.26590726
24.939785 -14.309821 0.26590726
24.877972 -14.321018 0.26590726
24.817587 -14.33833 0.26590726
24.75923 -14.361585 0.26590726
24.703487 -14.390549 0.26590726
24.650915 -14.424933 0.26590726
24.602037 -14.464395 0.26590726
24.557343 -14.508537 0.26590726
24.517281 -14.556923 0.26590726
24.482246 -14.609065 0.26590726
24.452595 -14.664445 0.26590726
24.428619 -14.722508 0.26590726
24.410561 -14.782676 0.26590726
24.398598 -14.844345 0.26590726
24.392853 -14.9069 0.26590726
24.393379 -14.969717 0.26590726
24.400177 -15.032166 0.26590726
24.413174 -15.093626 0.26590726
24.432241 -15.153481 0.26590726
24.45719 -15.211133 0.26590726
24.48777 -15.266006 0.26590726
24.523674 -15.317553 0.26590726
24.564545 -15.365257 0.26590726
24.609976 -15.408644 0.26590726
24.65951 -15.447277 0.26590726
24.712652 -15.480773 0.26590726
24.768875 -15.508796 0.26590726
24.827614 -15.531065 0.26590726
24.888283 -15.547359 0.26590726
24.950274 -15.557516 0.26590726
25.01297 -15.561433 0.26590726
25.075745 -15.559071 0.26590726
25.13797 -15.550454 0.26590726
25.199024 -15.535667 0.26590726
25.258297 -15.51486 0.26590726
25.315195 -15.488239 0.26590726
25.369152 -15.456071 0.26590726
25.419628 -15.418676 0.26590726
25.46612 -15.37643 0.26590726
25.50816 -15.329753 0.26590726
25.545332 -15.279112 0.26590726
25.577261 -15.225013 0.26590726
25.60363 -15.167996 0.26590726
25.624176 -15.108632 0.26590726
25.638691 -15.047514 0.26590726
25.647034 -14.985251 0.26590726
25.637917 -14.933032 0.20357493
25.634832 -14.871419 0.20357493
25.625614 -14.810422 0.20357493
25.610352 -14.750649 0.20357493
25.589197 -14.692699 0.20357493
25.562365 -14.637151 0.20357493
25.530121 -14.584558 0.20357493
25.492786 -14.535448 0.20357493
25.450735 -14.49031 0.20357493
25.404388 -14.449595 0.20357493
25.35421 -14.413712 0.20357493
25.300697 -14.383017 0.20357493
25.244389 -14.357817 0.20357493
25.185846 -14.338365 0.20357493
25.125654 -14.324854 0.20357493
25.064413 -14.31742 0.20357493
25.002737 -14.316137 0.20357493
24.94124 -14.321018 0.20357493
24.880537 -14.332014 0.20357493
24.821238 -14.349015 0.20357493
24.763929 -14.371852 0.20357493
24.709188 -14.400295 0.20357493
24.65756 -14.434062 0.20357493
24.60956 -14.472815 0.20357493
24.56567 -14.516165 0.20357493
24.526325 -14.56368 0.20357493
24.491922 -14.614886 0.20357493
24.462803 -14.669271 0.20357493
24.439259 -14.726291 0.20357493
24.421524 -14.785378 0.20357493
24.409777 -14.845939 0.20357493
24.404133 -14.90737 0.20357493
24.404652 -14.969057 0.20357493
24.411327 -15.030385 0.20357493
24.424089 -15.09074 0.20357493
24.442816 -15.14952 0.20357493
24.467316 -15.206137 0.20357493
24.497345 -15.260024 0.20357493
24.532604 -15.310644 0.20357493
24.572742 -15.357491 0.20357493
24.617355 -15.400098 0.20357493
24.666 -15.438038 0.20357493
24.718189 -15.470931 0.20357493
24.773401 -15.49845 0.20357493
24.831083 -15.520321 0.20357493
24.890663 -15.536323 0.20357493
24.95154 -15.546296 0.20357493
25.013111 -15.550142 0.20357493
25.074757 -15.547823 0.20357493
25.135864 -15.539361 0.20357493
25.19582 -15.52484 0.20357493
25.254028 -15.504407 0.20357493
25.309906 -15.478264 0.20357493
25.362892 -15.446673 0.20357493
25.412462 -15.409951 0.20357493
25.458118 -15.368464 0.20357493
25.499403 -15.322624 0.20357493
25.535906 -15.272894 0.20357493
25.567263 -15.219767 0.20357493
25.593157 -15.163774 0.20357493
25.613335 -15.105477 0.20357493
25.627588 -15.045457 0.20357493
25.635782 -14.984314 0.20357493
25.620459 -14.933032 0.14268127
25.617462 -14.873162 0.14268127
25.608503 -14.81389 0.14268127
25.593674 -14.755809 0.14268127
25.573118 -14.699498 0.14268127
25.547045 -14.64552 0.14268127
25.515711 -14.594416 0.14268127
25.479433 -14.546695 0.14268127
25.438572 -14.502833 0.14268127
25.393538 -14.463271 0.14268127
25.344776 -14.428402 0.14268127
25.29278 -14.398575 0.14268127
25.238064 -14.374088 0.14268127
25.181177 -14.355186 0.14268127
25.122686 -14.342057 0.14268127
25.063179 -14.334834 0.14268127
25.003246 -14.333588 0.14268127
24.943489 -14.33833 0.14268127
24.884504 -14.349015 0.14268127
24.826881 -14.365536 0.14268127
24.771194 -14.387726 0.14268127
24.718 -14.415365 0.14268127
24.667833 -14.448176 0.14268127
24.621191 -14.485832 0.14268127
24.578543 -14.527957 0.14268127
24.540312 -14.574128 0.14268127
24.506882 -14.623885 0.14268127
24.478586 -14.676732 0.14268127
24.455708 -14.73214 0.14268127
24.438475 -14.789554 0.14268127
24.427059 -14.848402 0.14268127
24.421576 -14.908095 0.14268127
24.422081 -14.968039 0.14268127
24.428566 -15.027632 0.14268127
24.440968 -15.08628 0.14268127
24.459164 -15.143396 0.14268127
24.482971 -15.198411 0.14268127
24.512152 -15.250774 0.14268127
24.546413 -15.299963 0.14268127
24.585415 -15.345485 0.14268127
24.628767 -15.386886 0.14268127
24.676035 -15.423753 0.14268127
24.726748 -15.455716 0.14268127
24.780397 -15.482456 0.14268127
24.836449 -15.503708 0.14268127
24.894342 -15.519257 0.14268127
24.953499 -15.528949 0.14268127
25.013327 -15.532686 0.14268127
25.073229 -15.530432 0.14268127
25.132608 -15.522209 0.14268127
25.190868 -15.5081 0.14268127
25.247429 -15.488244 0.14268127
25.301725 -15.462841 0.14268127
25.353214 -15.432144 0.14268127
25.401382 -15.39646 0.14268127
25.445745 -15.356146 0.14268127
25.485863 -15.311604 0.14268127
25.521334 -15.26328 0.14268127
25.551804 -15.211656 0.14268127
25.576965 -15.157248 0.14268127
25.596571 -15.100599 0.14268127
25.610424 -15.042277 0.14268127
25.618383 -14.982862 0.14268127
25.597008 -14.933032 0.083834738
25.59413 -14.875503 0.083834738
25.585522 -14.818549 0.083834738
25.57127 -14.762738 0.083834738
25.551519 -14.70863 0.083834738
25.526464 -14.656763 0.083834738
25.496357 -14.607656 0.083834738
25.461498 -14.561801 0.083834738
25.422235 -14.519655 0.083834738
25.378962 -14.48164 0.083834738
25.332108 -14.448134 0.083834738
25.282143 -14.419474 0.083834738
25.229567 -14.395944 0.083834738
25.174904 -14.377781 0.083834738
25.118702 -14.365166 0.083834738
25.06152 -14.358225 0.083834738
25.003931 -14.357027 0.083834738
24.94651 -14.361585 0.083834738
24.889832 -14.371852 0.083834738
24.834461 -14.387726 0.083834738
24.780952 -14.409049 0.083834738
24.729839 -14.435607 0.083834738
24.681633 -14.467135 0.083834738
24.636816 -14.503319 0.083834738
24.595835 -14.543796 0.083834738
24.559099 -14.588162 0.083834738
24.526976 -14.635974 0.083834738
24.499786 -14.686754 0.083834738
24.477802 -14.739995 0.083834738
24.461243 -14.795164 0.083834738
24.450274 -14.851711 0.083834738
24.445005 -14.909071 0.083834738
24.44549 -14.96667 0.083834738
24.451721 -15.023932 0.083834738
24.46364 -15.080287 0.083834738
24.481123 -15.13517 0.083834738
24.504 -15.188034 0.083834738
24.53204 -15.23835 0.083834738
24.564962 -15.285615 0.083834738
24.602438 -15.329357 0.083834738
24.644094 -15.369139 0.083834738
24.689514 -15.404564 0.083834738
24.738243 -15.435278 0.083834738
24.789797 -15.460973 0.083834738
24.843657 -15.481393 0.083834738
24.899286 -15.496334 0.083834738
24.956129 -15.505647 0.083834738
25.013617 -15.509238 0.083834738
25.071178 -15.507072 0.083834738
25.128235 -15.499171 0.083834738
25.184217 -15.485613 0.083834738
25.238565 -15.466534 0.083834738
25.290739 -15.442123 0.083834738
25.340216 -15.412627 0.083834738
25.386499 -15.378339 0.083834738
25.429129 -15.339602 0.083834738
25.467676 -15.296801 0.083834738
25.50176 -15.250366 0.083834738
25.531038 -15.200761 0.083834738
25.555218 -15.14848 0.083834738
25.574055 -15.094048 0.083834738
25.587366 -15.038005 0.083834738
25.595015 -14.980914 0.083834738
25.567801 -14.933032 0.027623296
25.565067 -14.878419 0.027623296
25.556896 -14.824351 0.027623296
25.543367 -14.77137 0.027623296
25.524618 -14.720003 0.027623296
25.500834 -14.670766 0.027623296
25.472252 -14.624148 0.027623296
25.439159 -14.580617 0.027623296
25.401886 -14.540607 0.027623296
25.360806 -14.504519 0.027623296
25.316326 -14.472712 0.027623296
25.268894 -14.445503 0.027623296
25.218983 -14.423166 0.027623296
25.167091 -14.405924 0.027623296
25.113737 -14.393949 0.027623296
25.059454 -14.38736 0.027623296
25.004784 -14.386223 0.027623296
24.950274 -14.390549 0.027623296
24.896469 -14.400295 0.027623296
24.843904 -14.415365 0.027623296
24.793108 -14.435607 0.027623296
24.744585 -14.460819 0.027623296
24.698822 -14.490749 0.027623296
24.656277 -14.525099 0.027623296
24.617373 -14.563524 0.027623296
24.582499 -14.605642 0.027623296
24.552002 -14.651031 0.027623296
24.526192 -14.699237 0.027623296
24.505322 -14.749779 0.027623296
24.489601 -14.802152 0.027623296
24.479189 -14.855833 0.027623296
24.474188 -14.910285 0.027623296
24.474648 -14.964965 0.027623296
24.480564 -15.019325 0.027623296
24.491877 -15.072824 0.027623296
24.508476 -15.124925 0.027623296
24.530191 -15.175109 0.027623296
24.55681 -15.222875 0.027623296
24.588064 -15.267744 0.027623296
24.62364 -15.309269 0.027623296
24.663185 -15.347034 0.027623296
24.706303 -15.380664 0.027623296
24.752563 -15.409821 0.027623296
24.801502 -15.434214 0.027623296
24.852633 -15.453599 0.027623296
24.905443 -15.467783 0.027623296
24.959404 -15.476624 0.027623296
25.013979 -15.480033 0.027623296
25.068623 -15.477977 0.027623296
25.122787 -15.470476 0.027623296
25.175932 -15.457605 0.027623296
25.227526 -15.439493 0.027623296
25.277056 -15.416321 0.027623296
25.324022 -15.388319 0.027623296
25.36796 -15.355768 0.027623296
25.40843 -15.318994 0.027623296
25.445024 -15.278363 0.027623296
25.477381 -15.234282 0.027623296
25.505175 -15.187191 0.027623296
25.528128 -15.13756 0.027623296
25.546011 -15.085886 0.027623296
25.558647 -15.032684 0.027623296
25.565908 -14.978487 0.027623296
25.533127 -14.933032 -0.025391489
25.530567 -14.881881 -0.025391489
25.522915 -14.83124 -0.025391489
25.510242 -14.781616 -0.025391489
25.492682 -14.733506 -0.025391489
25.470404 -14.687389 -0.025391489
25.443634 -14.643726 -0.025391489
25.41264 -14.602955 -0.025391489
25.377729 -14.56548 -0.025391489
25.339252 -14.531679 -0.025391489
25.297592 -14.501888 -0.025391489
25.253166 -14.476404 -0.025391489
25.206419 -14.455483 -0.025391489
25.157816 -14.439334 -0.025391489
25.107843 -14.428118 -0.025391489
25.057001 -14.421946 -0.025391489
25.005796 -14.420881 -0.025391489
24.954742 -14.424933 -0.025391489
24.904346 -14.434062 -0.025391489
24.855114 -14.448176 -0.025391489
24.807537 -14.467135 -0.025391489
24.762091 -14.490749 -0.025391489
24.719227 -14.518783 -0.025391489
24.679379 -14.550956 -0.025391489
24.642941 -14.586946 -0.025391489
24.610275 -14.626393 -0.025391489
24.581715 -14.668904 -0.025391489
24.557539 -14.714055 -0.025391489
24.537992 -14.761395 -0.025391489
24.523268 -14.810448 -0.025391489
24.513515 -14.860726 -0.025391489
24.508831 -14.911727 -0.025391489
24.509262 -14.962941 -0.025391489
24.514803 -15.013856 -0.025391489
24.5254 -15.063963 -0.025391489
24.540945 -15.112762 -0.025391489
24.561285 -15.159765 -0.025391489
24.586216 -15.204503 -0.025391489
24.61549 -15.246529 -0.025391489
24.648811 -15.285422 -0.025391489
24.68585 -15.320794 -0.025391489
24.726234 -15.352292 -0.025391489
24.769562 -15.379601 -0.025391489
24.815399 -15.402448 -0.025391489
24.863289 -15.420604 -0.025391489
24.912752 -15.433888 -0.025391489
24.963293 -15.442169 -0.025391489
25.014408 -15.445362 -0.025391489
25.065588 -15.443437 -0.025391489
25.11632 -15.436411 -0.025391489
25.166096 -15.424356 -0.025391489
25.21442 -15.407392 -0.025391489
25.260811 -15.385688 -0.025391489
25.304802 -15.359462 -0.025391489
25.345955 -15.328974 -0.025391489
25.383858 -15.294531 -0.025391489
25.418133 -15.256475 -0.025391489
25.448439 -15.215188 -0.025391489
25.47447 -15.171082 -0.025391489
25.49597 -15.124597 -0.025391489
25.51272 -15.076198 -0.025391489
25.524555 -15.026368 -0.025391489
25.531355 -14.975606 -0.025391489
25.493334 -14.933032 -0.074679852
25.490974 -14.885853 -0.074679852
25.483915 -14.839146 -0.074679852
25.472227 -14.793376 -0.074679852
25.45603 -14.749002 -0.074679852
25.435482 -14.706467 -0.074679852
25.410791 -14.666195 -0.074679852
25.382204 -14.62859 -0.074679852
25.350006 -14.594026 -0.074679852
25.314516 -14.56285 -0.074679852
25.276093 -14.535372 -0.074679852
25.235117 -14.511868 -0.074679852
25.191999 -14.492572 -0.074679852
25.147171 -14.477676 -0.074679852
25.10108 -14.467331 -0.074679852
25.054186 -14.461638 -0.074679852
25.006958 -14.460656 -0.074679852
24.959869 -14.464395 -0.074679852
24.913387 -14.472815 -0.074679852
24.867979 -14.485832 -0.074679852
24.824097 -14.503319 -0.074679852
24.782179 -14.525099 -0.074679852
24.742645 -14.550955 -0.074679852
24.705891 -14.580629 -0.074679852
24.672283 -14.613824 -0.074679852
24.642157 -14.650208 -0.074679852
24.615812 -14.689418 -0.074679852
24.593513 -14.731062 -0.074679852
24.575485 -14.774724 -0.074679852
24.561905 -14.819968 -0.074679852
24.55291 -14.866342 -0.074679852
24.54859 -14.913382 -0.074679852
24.548986 -14.960618 -0.074679852
24.554098 -15.007579 -0.074679852
24.563871 -15.053794 -0.074679852
24.578209 -15.098804 -0.074679852
24.59697 -15.142157 -0.074679852
24.619965 -15.18342 -0.074679852
24.646965 -15.222181 -0.074679852
24.677698 -15.258054 -0.074679852
24.711861 -15.290679 -0.074679852
24.749109 -15.319731 -0.074679852
24.78907 -15.344918 -0.074679852
24.831348 -15.365991 -0.074679852
24.875519 -15.382737 -0.074679852
24.921139 -15.39499 -0.074679852
24.967756 -15.402627 -0.074679852
25.014902 -15.405573 -0.074679852
25.062107 -15.403796 -0.074679852
25.108898 -15.397317 -0.074679852
25.154808 -15.386198 -0.074679852
25.199381 -15.370551 -0.074679852
25.242167 -15.350533 -0.074679852
25.282742 -15.326344 -0.074679852
25.320698 -15.298223 -0.074679852
25.355658 -15.266455 -0.074679852
25.387272 -15.231355 -0.074679852
25.415222 -15.193274 -0.074679852
25.439234 -15.152594 -0.074679852
25.459063 -15.109719 -0.074679852
25.474512 -15.065079 -0.074679852
25.485428 -15.019119 -0.074679852
25.491701 -14.9723 -0.074679852
25.44882 -14.933032 -0.11974934
25.446682 -14.890297 -0.11974934
25.440287 -14.847989 -0.11974934
25.429701 -14.806531 -0.11974934
25.41503 -14.766336 -0.11974934
25.396418 -14.727808 -0.11974934
25.374052 -14.69133 -0.11974934
25.348158 -14.657267 -0.11974934
25.318991 -14.625958 -0.11974934
25.286846 -14.597719 -0.11974934
25.252041 -14.57283 -0.11974934
25.214926 -14.551539 -0.11974934
25.175869 -14.534061 -0.11974934
25.135263 -14.520569 -0.11974934
25.093513 -14.511198 -0.11974934
25.051037 -14.506042 -0.11974934
25.008259 -14.505152 -0.11974934
24.965605 -14.508537 -0.11974934
24.9235 -14.516165 -0.11974934
24.88237 -14.527957 -0.11974934
24.842621 -14.543797 -0.11974934
24.804651 -14.563524 -0.11974934
24.768843 -14.586946 -0.11974934
24.73555 -14.613824 -0.11974934
24.705107 -14.643891 -0.11974934
24.677818 -14.676848 -0.11974934
24.653955 -14.712365 -0.11974934
24.633759 -14.750087 -0.11974934
24.617428 -14.789636 -0.11974934
24.605127 -14.830618 -0.11974934
24.596979 -14.872623 -0.11974934
24.593065 -14.915233 -0.11974934
24.593426 -14.958019 -0.11974934
24.598055 -15.000557 -0.11974934
24.606907 -15.042419 -0.11974934
24.619896 -15.083189 -0.11974934
24.636889 -15.122458 -0.11974934
24.657717 -15.159835 -0.11974934
24.682175 -15.194944 -0.11974934
24.710012 -15.227438 -0.11974934
24.740957 -15.25699 -0.11974934
24.774696 -15.283305 -0.11974934
24.810894 -15.306121 -0.11974934
24.84919 -15.325208 -0.11974934
24.8892 -15.340377 -0.11974934
24.930523 -15.351476 -0.11974934
24.972748 -15.358394 -0.11974934
25.015453 -15.361061 -0.11974934
25.058212 -15.359453 -0.11974934
25.100595 -15.353583 -0.11974934
25.142181 -15.343512 -0.11974934
25.182554 -15.329339 -0.11974934
25.221312 -15.311206 -0.11974934
25.258064 -15.289295 -0.11974934
25.292444 -15.263824 -0.11974934
25.324112 -15.235048 -0.11974934
25.352747 -15.203255 -0.11974934
25.378067 -15.168761 -0.11974934
25.399815 -15.131912 -0.11974934
25.417776 -15.093076 -0.11974934
25.43177 -15.052641 -0.11974934
25.441658 -15.01101 -0.11974934
25.44734 -14.968601 -0.11974934
25.400028 -14.933032 -0.1601496
25.398134 -14.895168 -0.1601496
25.392467 -14.857682 -0.1601496
25.383089 -14.82095 -0.1601496
25.370089 -14.785337 -0.1601496
25.3536 -14.7512 -0.1601496
25.333784 -14.71888 -0.1601496
25.310841 -14.688699 -0.1601496
25.284998 -14.66096 -0.1601496
25.256516 -14.635939 -0.1601496
25.225679 -14.613887 -0.1601496
25.192793 -14.595023 -0.1601496
25.15819 -14.579536 -0.1601496
25.122211 -14.567582 -0.1601496
25.08522 -14.559279 -0.1601496
25.047586 -14.554711 -0.1601496
25.009684 -14.553923 -0.1601496
24.971891 -14.556923 -0.1601496
24.934586 -14.56368 -0.1601496
24.898144 -14.574128 -0.1601496
24.862925 -14.588162 -0.1601496
24.829285 -14.605642 -0.1601496
24.797556 -14.626393 -0.1601496
24.768059 -14.650208 -0.1601496
24.741085 -14.676848 -0.1601496
24.716908 -14.706049 -0.1601496
24.695765 -14.737517 -0.1601496
24.67787 -14.770939 -0.1601496
24.663401 -14.805981 -0.1601496
24.652502 -14.842292 -0.1601496
24.645283 -14.879509 -0.1601496
24.641815 -14.917261 -0.1601496
24.642134 -14.955172 -0.1601496
24.646235 -14.99286 -0.1601496
24.654079 -15.029951 -0.1601496
24.665586 -15.066073 -0.1601496
24.680643 -15.100866 -0.1601496
24.699099 -15.133983 -0.1601496
24.720766 -15.165092 -0.1601496
24.745432 -15.193881 -0.1601496
24.77285 -15.220065 -0.1601496
24.802744 -15.243381 -0.1601496
24.834816 -15.263595 -0.1601496
24.868746 -15.280507 -0.1601496
24.904194 -15.293946 -0.1601496
24.940807 -15.303781 -0.1601496
24.97822 -15.30991 -0.1601496
25.016058 -15.312274 -0.1601496
25.053942 -15.310848 -0.1601496
25.091496 -15.305648 -0.1601496
25.128342 -15.296724 -0.1601496
25.164112 -15.284167 -0.1601496
25.198452 -15.268101 -0.1601496
25.231014 -15.248688 -0.1601496
25.261477 -15.22612 -0.1601496
25.289536 -15.200624 -0.1601496
25.314907 -15.172454 -0.1601496
25.337339 -15.141891 -0.1601496
25.356609 -15.109243 -0.1601496
25.372522 -15.074834 -0.1601496
25.384922 -15.039007 -0.1601496
25.393682 -15.002122 -0.1601496
25.398716 -14.964547 -0.1601496
25.347446 -14.933032 -0.1954771
25.345816 -14.900417 -0.1954771
25.340935 -14.868129 -0.1954771
25.332857 -14.836489 -0.1954771
25.321659 -14.805813 -0.1954771
25.307455 -14.776409 -0.1954771
25.290386 -14.748569 -0.1954771
25.270624 -14.722572 -0.1954771
25.248365 -14.698679 -0.1954771
25.223831 -14.677127 -0.1954771
25.197269 -14.658133 -0.1954771
25.168943 -14.641884 -0.1954771
25.139135 -14.628545 -0.1954771
25.108147 -14.618248 -0.1954771
25.076284 -14.611095 -0.1954771
25.043867 -14.607161 -0.1954771
25.011219 -14.606482 -0.1954771
24.978666 -14.609065 -0.1954771
24.946533 -14.614886 -0.1954771
24.915142 -14.623886 -0.1954771
24.884808 -14.635974 -0.1954771
24.855829 -14.651031 -0.1954771
24.828501 -14.668904 -0.1954771
24.803093 -14.689418 -0.1954771
24.77986 -14.712365 -0.1954771
24.759033 -14.737517 -0.1954771
24.740822 -14.764623 -0.1954771
24.725407 -14.793411 -0.1954771
24.712944 -14.823595 -0.1954771
24.703556 -14.854872 -0.1954771
24.697338 -14.88693 -0.1954771
24.694351 -14.919448 -0.1954771
24.694626 -14.952102 -0.1954771
24.698158 -14.984566 -0.1954771
24.704914 -15.016515 -0.1954771
24.714827 -15.047629 -0.1954771
24.727797 -15.077599 -0.1954771
24.743692 -15.106124 -0.1954771
24.762356 -15.132919 -0.1954771
24.783604 -15.157718 -0.1954771
24.807219 -15.180271 -0.1954771
24.832968 -15.200355 -0.1954771
24.860594 -15.217767 -0.1954771
24.88982 -15.232334 -0.1954771
24.920355 -15.243911 -0.1954771
24.951893 -15.252381 -0.1954771
24.984118 -15.257661 -0.1954771
25.01671 -15.259697 -0.1954771
25.049341 -15.258469 -0.1954771
25.081688 -15.253989 -0.1954771
25.113426 -15.246303 -0.1954771
25.144238 -15.235486 -0.1954771
25.173817 -15.221648 -0.1954771
25.201866 -15.204926 -0.1954771
25.228104 -15.185487 -0.1954771
25.252272 -15.163526 -0.1954771
25.274126 -15.139261 -0.1954771
25.293449 -15.112936 -0.1954771
25.310047 -15.084814 -0.1954771
25.323755 -15.055175 -0.1954771
25.334435 -15.024315 -0.1954771
25.341982 -14.992544 -0.1954771
25.346317 -14.960177 -0.1954771
25.291601 -14.933032 -0.22537866
25.290249 -14.905993 -0.22537866
25.286203 -14.879224 -0.22537866
25.279505 -14.852992 -0.22537866
25.270222 -14.82756 -0.22537866
25.258446 -14.803183 -0.22537866
25.244295 -14.780102 -0.22537866
25.227911 -14.75855 -0.22537866
25.209457 -14.73874 -0.22537866
25.189117 -14.720872 -0.22537866
25.167095 -14.705124 -0.22537866
25.143612 -14.691653 -0.22537866
25.1189 -14.680594 -0.22537866
25.093208 -14.672058 -0.22537866
25.066792 -14.666128 -0.22537866
25.039917 -14.662867 -0.22537866
25.01285 -14.662303 -0.22537866
24.985861 -14.664445 -0.22537866
24.959221 -14.669271 -0.22537866
24.933197 -14.676732 -0.22537866
24.908047 -14.686754 -0.22537866
24.884024 -14.699237 -0.22537866
24.861366 -14.714055 -0.22537866
24.840302 -14.731062 -0.22537866
24.821039 -14.750087 -0.22537866
24.803772 -14.770939 -0.22537866
24.788673 -14.793411 -0.22537866
24.775894 -14.817279 -0.22537866
24.765562 -14.842302 -0.22537866
24.75778 -14.868233 -0.22537866
24.752625 -14.894811 -0.22537866
24.750147 -14.92177 -0.22537866
24.750376 -14.948842 -0.22537866
24.753304 -14.975757 -0.22537866
24.758905 -15.002244 -0.22537866
24.767124 -15.028039 -0.22537866
24.777876 -15.052886 -0.22537866
24.791054 -15.076535 -0.22537866
24.806528 -15.09875 -0.22537866
24.824142 -15.119309 -0.22537866
24.843721 -15.138007 -0.22537866
24.86507 -15.154657 -0.22537866
24.887974 -15.169093 -0.22537866
24.912203 -15.18117 -0.22537866
24.937517 -15.190768 -0.22537866
24.963665 -15.19779 -0.22537866
24.990381 -15.202168 -0.22537866
25.017403 -15.203856 -0.22537866
25.044456 -15.202838 -0.22537866
25.071274 -15.199124 -0.22537866
25.097586 -15.192752 -0.22537866
25.123131 -15.183784 -0.22537866
25.147652 -15.172311 -0.22537866
25.170906 -15.158447 -0.22537866
25.192659 -15.142331 -0.22537866
25.212696 -15.124125 -0.22537866
25.230814 -15.104008 -0.22537866
25.246834 -15.082183 -0.22537866
25.260595 -15.058867 -0.22537866
25.271959 -15.034295 -0.22537866
25.280813 -15.008711 -0.22537866
25.287069 -14.98237 -0.22537866
25.290665 -14.955537 -0.22537866
25.233051 -14.933032 -0.24955568
25.231991 -14.911839 -0.24955568
25.228819 -14.890856 -0.24955568
25.223568 -14.870296 -0.24955568
25.216291 -14.850361 -0.24955568
25.207062 -14.831253 -0.24955568
25.195971 -14.813163 -0.24955568
25.183128 -14.796269 -0.24955568
25.168663 -14.780743 -0.24955568
25.152721 -14.766737 -0.24955568
25.13546 -14.754394 -0.24955568
25.117052 -14.743835 -0.24955568
25.097683 -14.735167 -0.24955568
25.077545 -14.728476 -0.24955568
25.056841 -14.723828 -0.24955568
25.035774 -14.721271 -0.24955568
25.014559 -14.72083 -0.24955568
24.993404 -14.722508 -0.24955568
24.972525 -14.726291 -0.24955568
24.952126 -14.73214 -0.24955568
24.932413 -14.739995 -0.24955568
24.913582 -14.749779 -0.24955568
24.895823 -14.761394 -0.24955568
24.879313 -14.774724 -0.24955568
24.864214 -14.789636 -0.24955568
24.850681 -14.805981 -0.24955568
24.838846 -14.823595 -0.24955568
24.828829 -14.842302 -0.24955568
24.82073 -14.861917 -0.24955568
24.814631 -14.882241 -0.24955568
24.810589 -14.903073 -0.24955568
24.808649 -14.924205 -0.24955568
24.808826 -14.945424 -0.24955568
24.811123 -14.96652 -0.24955568
24.815514 -14.987282 -0.24955568
24.821955 -15.007501 -0.24955568
24.830381 -15.026976 -0.24955568
24.840712 -15.045512 -0.24955568
24.85284 -15.062925 -0.24955568
24.866648 -15.07904 -0.24955568
24.881994 -15.093696 -0.24955568
24.898726 -15.106747 -0.24955568
24.916679 -15.118061 -0.24955568
24.935671 -15.127527 -0.24955568
24.955513 -15.13505 -0.24955568
24.976007 -15.140554 -0.24955568
24.996948 -15.143986 -0.24955568
25.018127 -15.145308 -0.24955568
25.039333 -15.14451 -0.24955568
25.060352 -15.1416 -0.24955568
25.080976 -15.136605 -0.24955568
25.101 -15.129576 -0.24955568
25.12022 -15.120584 -0.24955568
25.138447 -15.109716 -0.24955568
25.155499 -15.097085 -0.24955568
25.171204 -15.082813 -0.24955568
25.185404 -15.067046 -0.24955568
25.197962 -15.049939 -0.24955568
25.208746 -15.031664 -0.24955568
25.217655 -15.012404 -0.24955568
25.224594 -14.992351 -0.24955568
25.229498 -14.971704 -0.24955568
25.232317 -14.950672 -0.24955568
25.172379 -14.933032 -0.26776645
25.171621 -14.917895 -0.26776645
25.169355 -14.902909 -0.26776645
25.165606 -14.888226 -0.26776645
25.16041 -14.873988 -0.26776645
25.153816 -14.860341 -0.26776645
25.145895 -14.847421 -0.26776645
25.136723 -14.835356 -0.26776645
25.126392 -14.824266 -0.26776645
25.115005 -14.814264 -0.26776645
25.102678 -14.805448 -0.26776645
25.089533 -14.797907 -0.26776645
25.075699 -14.791716 -0.26776645
25.061316 -14.786937 -0.26776645
25.046528 -14.783618 -0.26776645
25.031483 -14.781792 -0.26776645
25.016331 -14.781476 -0.26776645
25.001223 -14.782676 -0.26776645
24.986309 -14.785378 -0.26776645
24.971741 -14.789554 -0.26776645
24.957661 -14.795164 -0.26776645
24.944212 -14.802152 -0.26776645
24.931528 -14.810448 -0.26776645
24.919737 -14.819968 -0.26776645
24.908955 -14.830618 -0.26776645
24.899288 -14.842292 -0.26776645
24.890837 -14.854872 -0.26776645
24.883682 -14.868233 -0.26776645
24.877897 -14.882241 -0.26776645
24.873541 -14.896757 -0.26776645
24.870655 -14.911635 -0.26776645
24.869268 -14.926727 -0.26776645
24.869396 -14.941882 -0.26776645
24.871037 -14.956949 -0.26776645
24.874172 -14.971777 -0.26776645
24.878773 -14.986217 -0.26776645
24.88479 -15.000127 -0.26776645
24.892168 -15.013366 -0.26776645
24.900831 -15.025802 -0.26776645
24.910692 -15.037312 -0.26776645
24.921652 -15.047778 -0.26776645
24.933603 -15.057099 -0.26776645
24.946424 -15.065181 -0.26776645
24.959988 -15.071941 -0.26776645
24.974159 -15.077314 -0.26776645
24.988796 -15.081245 -0.26776645
25.003754 -15.083695 -0.26776645
25.018879 -15.084641 -0.26776645
25.034023 -15.084071 -0.26776645
25.049036 -15.081992 -0.26776645
25.063766 -15.078424 -0.26776645
25.078066 -15.073404 -0.26776645
25.091793 -15.066982 -0.26776645
25.104813 -15.059221 -0.26776645
25.116989 -15.050199 -0.26776645
25.128206 -15.040007 -0.26776645
25.13835 -15.028746 -0.26776645
25.147316 -15.016527 -0.26776645
25.15502 -15.003475 -0.26776645
25.161383 -14.989719 -0.26776645
25.166338 -14.975397 -0.26776645
25.169842 -14.960652 -0.26776645
25.171854 -14.945631 -0.26776645
25.110189 -14.933032 -0.27982911
25.109743 -14.924104 -0.27982911
25.108408 -14.915264 -0.27982911
25.106195 -14.906603 -0.27982911
25.10313 -14.898206 -0.27982911
25.099243 -14.890156 -0.27982911
25.09457 -14.882535 -0.27982911
25.089159 -14.875418 -0.27982911
25.083067 -14.868877 -0.27982911
25.076349 -14.862977 -0.27982911
25.069078 -14.857777 -0.27982911
25.061323 -14.853329 -0.27982911
25.053164 -14.849677 -0.27982911
25.044682 -14.846858 -0.27982911
25.035957 -14.844901 -0.27982911
25.027084 -14.843823 -0.27982911
25.018147 -14.843637 -0.27982911
25.009235 -14.844345 -0.27982911
25.000439 -14.845939 -0.27982911
24.991844 -14.848402 -0.27982911
24.983541 -14.851711 -0.27982911
24.975609 -14.855833 -0.27982911
24.968126 -14.860726 -0.27982911
24.96117 -14.866342 -0.27982911
24.954811 -14.872623 -0.27982911
24.94911 -14.879509 -0.27982911
24.944124 -14.88693 -0.27982911
24.939903 -14.894811 -0.27982911
24.936493 -14.903073 -0.27982911
24.933922 -14.911635 -0.27982911
24.93222 -14.920411 -0.27982911
24.931402 -14.929314 -0.27982911
24.931477 -14.938252 -0.27982911
24.932446 -14.94714 -0.27982911
24.934294 -14.955886 -0.27982911
24.937008 -14.964403 -0.27982911
24.940557 -14.972608 -0.27982911
24.94491 -14.980416 -0.27982911
24.95002 -14.987752 -0.27982911
24.955835 -14.99454 -0.27982911
24.962301 -15.000715 -0.27982911
24.969349 -15.006212 -0.27982911
24.976912 -15.01098 -0.27982911
24.984913 -15.014967 -0.27982911
24.993273 -15.018136 -0.27982911
25.001905 -15.020455 -0.27982911
25.010727 -15.0219 -0.27982911
25.01965 -15.022458 -0.27982911
25.028584 -15.022121 -0.27982911
25.037437 -15.020895 -0.27982911
25.046125 -15.018791 -0.27982911
25.054562 -15.01583 -0.27982911
25.062658 -15.012042 -0.27982911
25.070337 -15.007464 -0.27982911
25.07752 -15.002143 -0.27982911
25.084135 -14.996131 -0.27982911
25.090118 -14.989488 -0.27982911
25.095407 -14.982282 -0.27982911
25.099953 -14.974583 -0.27982911
25.103704 -14.966469 -0.27982911
25.106628 -14.958021 -0.27982911
25.108694 -14.949324 -0.27982911
25.10988 -14.940463 -0.27982911
25.04711 -14.933032 -0.28562322
25.046978 -14.930401 -0.28562322
25.046583 -14.927796 -0.28562322
25.045933 -14.925244 -0.28562322
25.045029 -14.922771 -0.28562322
25.043882 -14.920399 -0.28562322
25.042507 -14.918153 -0.28562322
25.040913 -14.916056 -0.28562322
25.039118 -14.914128 -0.28562322
25.037138 -14.91239 -0.28562322
25.034996 -14.910858 -0.28562322
25.032711 -14.909548 -0.28562322
25.030306 -14.908471 -0.28562322
25.027807 -14.90764 -0.28562322
25.025236 -14.907064 -0.28562322
25.022621 -14.906747 -0.28562322
25.019989 -14.906692 -0.28562322
25.017363 -14.9069 -0.28562322
25.014771 -14.90737 -0.28562322
25.012239 -14.908095 -0.28562322
25.009792 -14.909071 -0.28562322
25.007454 -14.910285 -0.28562322
25.005249 -14.911727 -0.28562322
25.003201 -14.913382 -0.28562322
25.001326 -14.915233 -0.28562322
24.999647 -14.917261 -0.28562322
24.998177 -14.919448 -0.28562322
24.996935 -14.92177 -0.28562322
24.995928 -14.924205 -0.28562322
24.995171 -14.926727 -0.28562322
24.994669 -14.929314 -0.28562322
24.994429 -14.931936 -0.28562322
24.994452 -14.93457 -0.28562322
24.994736 -14.937189 -0.28562322
24.995281 -14.939766 -0.28562322
24.99608 -14.942276 -0.28562322
24.997128 -14.944693 -0.28562322
24.998409 -14.946994 -0.28562322
24.999914 -14.949156 -0.28562322
25.001629 -14.951156 -0.28562322
25.003532 -14.952975 -0.28562322
25.00561 -14.954595 -0.28562322
25.007839 -14.955999 -0.28562322
25.010197 -14.957174 -0.28562322
25.012659 -14.958108 -0.28562322
25.015203 -14.958792 -0.28562322
25.017801 -14.959217 -0.28562322
25.020432 -14.959381 -0.28562322
25.023064 -14.959283 -0.28562322
25.025673 -14.958921 -0.28562322
25.028233 -14.958302 -0.28562322
25.030718 -14.957429 -0.28562322
25.033104 -14.956312 -0.28562322
25.035366 -14.954964 -0.28562322
25.037483 -14.953396 -0.28562322
25.039433 -14.951624 -0.28562322
25.041195 -14.949667 -0.28562322
25.042753 -14.947543 -0.28562322
25.044092 -14.945275 -0.28562322
25.045198 -14.942884 -0.28562322
25.046059 -14.940395 -0.28562322
25.046669 -14.937833 -0.28562322
25.047018 -14.935222 -0.28562322
20.575506 -6.153327 0.27058971
20.575506 -6.153327 0.3705897
20.575506 -6.153327 0.4705897
20.575506 -6.153327 0.57058972
20.575506 -6.153327 0.67058975
20.575506 -6.153327 0.77058977
20.575506 -6.153327 0.87058979
20.575506 -6.153327 0.97058982
20.575506 -6.153327 1.0705898
20.575506 -6.153327 1.1705898
20.575506 -6.153327 1.2705898
20.575506 -6.153327 1.3705899
20.575506 -6.153327 1.4705899
20.575506 -6.153327 1.5705899
20.575506 -6.153327 1.6705899
20.575506 -6.153327 1.7705899
20.575506 -6.153327 1.87059
20.575506 -6.153327 1.97059
20.575506 -6.153327 2.07059
20.575506 -6.153327 2.1705899
20.571283 -6.0689569 0.27058971
20.571283 -6.0689569 0.3705897
20.571283 -6.0689569 0.4705897
20.571283 -6.0689569 0.57058972
20.571283 -6.0689569 0.67058975
20.571283 -6.0689569 0.77058977
20.571283 -6.0689569 0.87058979
20.571283 -6.0689569 0.97058982
20.571283 -6.0689569 1.0705898
20.571283 -6.0689569 1.1705898
20.571283 -6.0689569 1.2705898
20.571283 -6.0689569 1.3705899
20.571283 -6.0689569 1.4705899
20.571283 -6.0689569 1.5705899
20.571283 -6.0689569 1.6705899
20.571283 -6.0689569 1.7705899
20.571283 -6.0689569 1.87059
20.571283 -6.0689569 1.97059
20.571283 -6.0689569 2.07059
20.571283 -6.0689569 2.1705899
20.558661 -5.9854298 0.27058971
20.558661 -5.9854298 0.3705897
20.558661 -5.9854298 0.4705897
20.558661 -5.9854298 0.57058972
20.558661 -5.9854298 0.67058975
20.558661 -5.9854298 0.77058977
20.558661 -5.9854298 0.87058979
20.558661 -5.9854298 0.97058982
20.558661 -5.9854298 1.0705898
20.558661 -5.9854298 1.1705898
20.558661 -5.9854298 1.2705898
20.558661 -5.9854298 1.3705899
20.558661 -5.9854298 1.4705899
20.558661 -5.9854298 1.5705899
20.558661 -5.9854298 1.6705899
20.558661 -5.9854298 1.7705899
20.558661 -5.9854298 1.87059
20.558661 -5.9854298 1.97059
20.558661 -5.9854298 2.07059
20.558661 -5.9854298 2.1705899
20.53776 -5.9035802 0.27058971
20.53776 -5.9035802 0.3705897
20.53776 -5.9035802 0.4705897
20.53776 -5.9035802 0.57058972
20.53776 -5.9035802 0.67058975
20.53776 -5.9035802 0.77058977
20.53776 -5.9035802 0.87058979
20.53776 -5.9035802 0.97058982
20.53776 -5.9035802 1.0705898
20.53776 -5.9035802 1.1705898
20.53776 -5.9035802 1.2705898
20.53776 -5.9035802 1.3705899
20.53776 -5.9035802 1.4705899
20.53776 -5.9035802 1.5705899
20.53776 -5.9035802 1.6705899
20.53776 -5.9035802 1.7705899
20.53776 -5.9035802 1.87059
20.53776 -5.9035802 1.97059
20.53776 -5.9035802 2.07059
20.53776 -5.9035802 2.1705899
20.508793 -5.8242259 0.27058971
20.508793 -5.8242259 0.3705897
20.508793 -5.8242259 0.4705897
20.508793 -5.8242259 0.57058972
20.508793 -5.8242259 0.67058975
20.508793 -5.8242259 0.77058977
20.508793 -5.8242259 0.87058979
20.508793 -5.8242259 0.97058982
20.508793 -5.8242259 1.0705898
20.508793 -5.8242259 1.1705898
20.508793 -5.8242259 1.2705898
20.508793 -5.8242259 1.3705899
20.508793 -5.8242259 1.4705899
20.508793 -5.8242259 1.5705899
20.508793 -5.8242259 1.6705899
20.508793 -5.8242259 1.7705899
20.508793 -5.8242259 1.87059
20.508793 -5.8242259 1.97059
20.508793 -5.8242259 2.07059
20.508793 -5.8242259 2.1705899
20.47205 -5.7481599 0.27058971
20.47205 -5.7481599 0.3705897
20.47205 -5.7481599 0.4705897
20.47205 -5.7481599 0.57058972
20.47205 -5.7481599 0.67058975
20.47205 -5.7481599 0.77058977
20.47205 -5.7481599 0.87058979
20.47205 -5.7481599 0.97058982
20.47205 -5.7481599 1.0705898
20.47205 -5.7481599 1.1705898
20.47205 -5.7481599 1.2705898
20.47205 -5.7481599 1.3705899
20.47205 -5.7481599 1.4705899
20.47205 -5.7481599 1.5705899
20.47205 -5.7481599 1.6705899
20.47205 -5.7481599 1.7705899
20.47205 -5.7481599 1.87059
20.47205 -5.7481599 1.97059
20.47205 -5.7481599 2.07059
20.47205 -5.7481599 2.1705899
20.427895 -5.6761422 0.27058971
20.427895 -5.6761422 0.3705897
20.427895 -5.6761422 0.4705897
20.427895 -5.6761422 0.57058972
20.427895 -5.6761422 0.67058975
20.427895 -5.6761422 0.77058977
20.427895 -5.6761422 0.87058979
20.427895 -5.6761422 0.97058982
20.427895 -5.6761422 1.0705898
20.427895 -5.6761422 1.1705898
20.427895 -5.6761422 1.2705898
20.427895 -5.6761422 1.3705899
20.427895 -5.6761422 1.4705899
20.427895 -5.6761422 1.5705899
20.427895 -5.6761422 1.6705899
20.427895 -5.6761422 1.7705899
20.427895 -5.6761422 1.87059
20.427895 -5.6761422 1.97059
20.427895 -5.6761422 2.07059
20.427895 -5.6761422 2.1705899
20.376772 -5.6088924 0.27058971
20.376772 -5.6088924 0.3705897
20.376772 -5.6088924 0.4705897
20.376772 -5.6088924 0.57058972
20.376772 -5.6088924 0.67058975
20.376772 -5.6088924 0.77058977
20.376772 -5.6088924 0.87058979
20.376772 -5.6088924 0.97058982
20.376772 -5.6088924 1.0705898
20.376772 -5.6088924 1.1705898
20.376772 -5.6088924 1.2705898
20.376772 -5.6088924 1.3705899
20.376772 -5.6088924 1.4705899
20.376772 -5.6088924 1.5705899
20.376772 -5.6088924 1.6705899
20.376772 -5.6088924 1.7705899
20.376772 -5.6088924 1.87059
20.376772 -5.6088924 1.97059
20.376772 -5.6088924 2.07059
20.376772 -5.6088924 2.1705899
20.319189 -5.5470824 0.27058971
20.319189 -5.5470824 0.3705897
20.319189 -5.5470824 0.4705897
20.319189 -5.5470824 0.57058972
20.319189 -5.5470824 0.67058975
20.319189 -5.5470824 0.77058977
20.319189 -5.5470824 0.87058979
20.319189 -5.5470824 0.97058982
20.319189 -5.5470824 1.0705898
20.319189 -5.5470824 1.1705898
20.319189 -5.5470824 1.2705898
20.319189 -5.5470824 1.3705899
20.319189 -5.5470824 1.4705899
20.319189 -5.5470824 1.5705899
20.319189 -5.5470824 1.6705899
20.319189 -5.5470824 1.7705899
20.319189 -5.5470824 1.87059
20.319189 -5.5470824 1.97059
20.319189 -5.5470824 2.07059
20.319189 -5.5470824 2.1705899
20.255724 -5.4913301 0.27058971
20.255724 -5.4913301 0.3705897
20.255724 -5.4913301 0.4705897
20.255724 -5.4913301 0.57058972
20.255724 -5.4913301 0.67058975
20.255724 -5.4913301 0.77058977
20.255724 -5.4913301 0.87058979
20.255724 -5.4913301 0.97058982
20.255724 -5.4913301 1.0705898
20.255724 -5.4913301 1.1705898
20.255724 -5.4913301 1.2705898
20.255724 -5.4913301 1.3705899
20.255724 -5.4913301 1.4705899
20.255724 -5.4913301 1.5705899
20.255724 -5.4913301 1.6705899
20.255724 -5.4913301 1.7705899
20.255724 -5.4913301 1.87059
20.255724 -5.4913301 1.97059
20.255724 -5.4913301 2.07059
20.255724 -5.4913301 2.1705899
20.18701 -5.4421921 0.27058971
20.18701 -5.4421921 0.3705897
20.18701 -5.4421921 0.4705897
20.18701 -5.4421921 0.57058972
20.18701 -5.4421921 0.67058975
20.18701 -5.4421921 0.77058977
20.18701 -5.4421921 0.87058979
20.18701 -5.4421921 0.97058982
20.18701 -5.4421921 1.0705898
20.18701 -5.4421921 1.1705898
20.18701 -5.4421921 1.2705898
20.18701 -5.4421921 1.3705899
20.18701 -5.4421921 1.4705899
20.18701 -5.4421921 1.5705899
20.18701 -5.4421921 1.6705899
20.18701 -5.4421921 1.7705899
20.18701 -5.4421921 1.87059
20.18701 -5.4421921 1.97059
20.18701 -5.4421921 2.07059
20.18701 -5.4421921 2.1705899
20.113735 -5.4001594 0.27058971
20.113735 -5.4001594 0.3705897
20.113735 -5.4001594 0.4705897
20.113735 -5.4001594 0.57058972
20.113735 -5.4001594 0.67058975
20.113735 -5.4001594 0.77058977
20.113735 -5.4001594 0.87058979
20.113735 -5.4001594 0.97058982
20.113735 -5.4001594 1.0705898
20.113735 -5.4001594 1.1705898
20.113735 -5.4001594 1.2705898
20.113735 -5.4001594 1.3705899
20.113735 -5.4001594 1.4705899
20.113735 -5.4001594 1.5705899
20.113735 -5.4001594 1.6705899
20.113735 -5.4001594 1.7705899
20.113735 -5.4001594 1.87059
20.113735 -5.4001594 1.97059
20.113735 -5.4001594 2.07059
20.113735 -5.4001594 2.1705899
20.036629 -5.3656521 0.27058971
20.036629 -5.3656521 0.3705897
20.036629 -5.3656521 0.4705897
20.036629 -5.3656521 0.57058972
20.036629 -5.3656521 0.67058975
20.036629 -5.3656521 0.77058977
20.036629 -5.3656521 0.87058979
20.036629 -5.3656521 0.97058982
20.036629 -5.3656521 1.0705898
20.036629 -5.3656521 1.1705898
20.036629 -5.3656521 1.2705898
20.036629 -5.3656521 1.3705899
20.036629 -5.3656521 1.4705899
20.036629 -5.3656521 1.5705899
20.036629 -5.3656521 1.6705899
20.036629 -5.3656521 1.7705899
20.036629 -5.3656521 1.87059
20.036629 -5.3656521 1.97059
20.036629 -5.3656521 2.07059
20.036629 -5.3656521 2.1705899
19.956461 -5.339015 0.27058971
19.956461 -5.339015 0.3705897
19.956461 -5.339015 0.4705897
19.956461 -5.339015 0.57058972
19.956461 -5.339015 0.67058975
19.956461 -5.339015 0.77058977
19.956461 -5.339015 0.87058979
19.956461 -5.339015 0.97058982
19.956461 -5.339015 1.0705898
19.956461 -5.339015 1.1705898
19.956461 -5.339015 1.2705898
19.956461 -5.339015 1.3705899
19.956461 -5.339015 1.4705899
19.956461 -5.339015 1.5705899
19.956461 -5.339015 1.6705899
19.956461 -5.339015 1.7705899
19.956461 -5.339015 1.87059
19.956461 -5.339015 1.97059
19.956461 -5.339015 2.07059
19.956461 -5.339015 2.1705899
19.874037 -5.3205142 0.27058971
19.874037 -5.3205142 0.3705897
19.874037 -5.3205142 0.4705897
19.874037 -5.3205142 0.57058972
19.874037 -5.3205142 0.67058975
19.874037 -5.3205142 0.77058977
19.874037 -5.3205142 0.87058979
19.874037 -5.3205142 0.97058982
19.874037 -5.3205142 1.0705898
19.874037 -5.3205142 1.1705898
19.874037 -5.3205142 1.2705898
19.874037 -5.3205142 1.3705899
19.874037 -5.3205142 1.4705899
19.874037 -5.3205142 1.5705899
19.874037 -5.3205142 1.6705899
19.874037 -5.3205142 1.7705899
19.874037 -5.3205142 1.87059
19.874037 -5.3205142 1.97059
19.874037 -5.3205142 2.07059
19.874037 -5.3205142 2.1705899
19.790176 -5.3103347 0.27058971
19.790176 -5.3103347 0.3705897
19.790176 -5.3103347 0.4705897
19.790176 -5.3103347 0.57058972
19.790176 -5.3103347 0.67058975
19.790176 -5.3103347 0.77058977
19.790176 -5.3103347 0.87058979
19.790176 -5.3103347 0.97058982
19.790176 -5.3103347 1.0705898
19.790176 -5.3103347 1.1705898
19.790176 -5.3103347 1.2705898
19.790176 -5.3103347 1.3705899
19.790176 -5.3103347 1.4705899
19.790176 -5.3103347 1.5705899
19.790176 -5.3103347 1.6705899
19.790176 -5.3103347 1.7705899
19.790176 -5.3103347 1.87059
19.790176 -5.3103347 1.97059
19.790176 -5.3103347 2.07059
19.790176 -5.3103347 2.1705899
19.705719 -5.308578 0.27058971
19.705719 -5.308578 0.3705897
19.705719 -5.308578 0.4705897
19.705719 -5.308578 0.57058972
19.705719 -5.308578 0.67058975
19.705719 -5.308578 0.77058977
19.705719 -5.308578 0.87058979
19.705719 -5.308578 0.97058982
19.705719 -5.308578 1.0705898
19.705719 -5.308578 1.1705898
19.705719 -5.308578 1.2705898
19.705719 -5.308578 1.3705899
19.705719 -5.308578 1.4705899
19.705719 -5.308578 1.5705899
19.705719 -5.308578 1.6705899
19.705719 -5.308578 1.7705899
19.705719 -5.308578 1.87059
19.705719 -5.308578 1.97059
19.705719 -5.308578 2.07059
19.705719 -5.308578 2.1705899
19.621508 -5.3152618 0.27058971
19.621508 -5.3152618 0.3705897
19.621508 -5.3152618 0.4705897
19.621508 -5.3152618 0.57058972
19.621508 -5.3152618 0.67058975
19.621508 -5.3152618 0.77058977
19.621508 -5.3152618 0.87058979
19.621508 -5.3152618 0.97058982
19.621508 -5.3152618 1.0705898
19.621508 -5.3152618 1.1705898
19.621508 -5.3152618 1.2705898
19.621508 -5.3152618 1.3705899
19.621508 -5.3152618 1.4705899
19.621508 -5.3152618 1.5705899
19.621508 -5.3152618 1.6705899
19.621508 -5.3152618 1.7705899
19.621508 -5.3152618 1.87059
19.621508 -5.3152618 1.97059
19.621508 -5.3152618 2.07059
19.621508 -5.3152618 2.1705899
19.538385 -5.3303194 0.27058971
19.538385 -5.3303194 0.3705897
19.538385 -5.3303194 0.4705897
19.538385 -5.3303194 0.57058972
