# .PCD v0.7 - Point Cloud Data file format
VERSION 0.7
FIELDS x y z
SIZE 4 4 4
TYPE F F F
COUNT 1 1 1
WIDTH 1564
HEIGHT 1
VIEWPOINT 0 0 0 1 0 0 0
POINTS 1564
DATA ascii
13.677548 3.6594553 0.41174245
13.677548 3.6594553 0.51174247
13.677548 3.6594553 0.6117425
13.677548 3.6594553 0.71174252
13.677548 3.6594553 0.81174254
13.677548 3.6594553 0.91174257
13.677548 3.6594553 1.0117426
13.677548 3.6594553 1.1117426
13.742393 3.6271348 -0.088257551
13.742393 3.6271348 0.01174245
13.742393 3.6271348 0.11174245
13.742393 3.6271348 0.21174246
13.742393 3.6271348 0.31174245
13.742393 3.6271348 0.41174245
13.742393 3.6271348 0.51174247
13.742393 3.6271348 0.6117425
13.742393 3.6271348 0.71174252
13.742393 3.6271348 0.81174254
13.742393 3.6271348 0.91174257
13.742393 3.6271348 1.0117426
13.742393 3.6271348 1.1117426
13.81014 3.6014497 -0.088257551
13.81014 3.6014497 0.01174245
13.81014 3.6014497 0.11174245
13.81014 3.6014497 0.21174246
13.81014 3.6014497 0.31174245
13.81014 3.6014497 0.41174245
13.81014 3.6014497 0.51174247
13.81014 3.6014497 0.6117425
13.81014 3.6014497 0.71174252
13.81014 3.6014497 0.81174254
13.81014 3.6014497 0.91174257
13.81014 3.6014497 1.0117426
13.81014 3.6014497 1.1117426
13.880113 3.5826561 -0.088257551
13.880113 3.5826561 0.01174245
13.880113 3.5826561 0.11174245
13.880113 3.5826561 0.21174246
13.880113 3.5826561 0.31174245
13.880113 3.5826561 0.41174245
13.880113 3.5826561 0.51174247
13.880113 3.5826561 0.6117425
13.880113 3.5826561 0.71174252
13.880113 3.5826561 0.81174254
13.880113 3.5826561 0.91174257
13.880113 3.5826561 1.0117426
13.880113 3.5826561 1.1117426
13.951612 3.5709422 -0.088257551
13.951612 3.5709422 0.01174245
13.951612 3.5709422 0.11174245
13.951612 3.5709422 0.21174246
13.951612 3.5709422 0.31174245
13.951612 3.5709422 0.41174245
13.951612 3.5709422 0.51174247
13.951612 3.5709422 0.6117425
13.951612 3.5709422 0.71174252
13.951612 3.5709422 0.81174254
13.951612 3.5709422 0.91174257
13.951612 3.5709422 1.0117426
13.951612 3.5709422 1.1117426
14.023924 3.5664248 -0.088257551
14.023924 3.5664248 0.01174245
14.023924 3.5664248 0.11174245
14.023924 3.5664248 0.21174246
14.023924 3.5664248 0.31174245
14.023924 3.5664248 0.41174245
14.023924 3.5664248 0.51174247
14.023924 3.5664248 0.6117425
14.023924 3.5664248 0.71174252
14.023924 3.5664248 0.81174254
14.023924 3.5664248 0.91174257
14.023924 3.5664248 1.0117426
14.023924 3.5664248 1.1117426
14.096325 3.569149 -0.088257551
14.096325 3.569149 0.01174245
14.096325 3.569149 0.11174245
14.096325 3.569149 0.21174246
14.096325 3.569149 0.31174245
14.096325 3.569149 0.41174245
14.096325 3.569149 0.51174247
14.096325 3.569149 0.6117425
14.096325 3.569149 0.71174252
14.096325 3.569149 0.81174254
14.096325 3.569149 0.91174257
14.096325 3.569149 1.0117426
14.096325 3.569149 1.1117426
14.168093 3.5790877 -0.088257551
14.168093 3.5790877 0.01174245
14.168093 3.5790877 0.11174245
14.168093 3.5790877 0.21174246
14.168093 3.5790877 0.31174245
14.168093 3.5790877 0.41174245
14.168093 3.5790877 0.51174247
14.168093 3.5790877 0.6117425
14.168093 3.5790877 0.71174252
14.168093 3.5790877 0.81174254
14.168093 3.5790877 0.91174257
14.168093 3.5790877 1.0117426
14.168093 3.5790877 1.1117426
14.238509 3.5961413 -0.088257551
14.238509 3.5961413 0.01174245
14.238509 3.5961413 0.11174245
14.238509 3.5961413 0.21174246
14.238509 3.5961413 0.31174245
14.238509 3.5961413 0.41174245
14.238509 3.5961413 0.51174247
14.238509 3.5961413 0.6117425
14.238509 3.5961413 0.71174252
14.238509 3.5961413 0.81174254
14.238509 3.5961413 0.91174257
14.238509 3.5961413 1.0117426
14.238509 3.5961413 1.1117426
14.306872 3.6201401 -0.088257551
14.306872 3.6201401 0.01174245
14.306872 3.6201401 0.11174245
14.306872 3.6201401 0.21174246
14.306872 3.6201401 0.31174245
14.306872 3.6201401 0.41174245
14.306872 3.6201401 0.51174247
14.306872 3.6201401 0.6117425
14.306872 3.6201401 0.71174252
14.306872 3.6201401 0.81174254
14.306872 3.6201401 0.91174257
14.306872 3.6201401 1.0117426
14.306872 3.6201401 1.1117426
14.372498 3.6508436 -0.088257551
14.372498 3.6508436 0.01174245
14.372498 3.6508436 0.11174245
14.372498 3.6508436 0.21174246
14.372498 3.6508436 0.31174245
14.372498 3.6508436 0.41174245
14.372498 3.6508436 0.51174247
14.372498 3.6508436 0.6117425
14.372498 3.6508436 0.71174252
14.372498 3.6508436 0.81174254
14.372498 3.6508436 0.91174257
14.372498 3.6508436 1.0117426
14.372498 3.6508436 1.1117426
14.43473 3.6879454 -0.088257551
14.43473 3.6879454 0.01174245
14.43473 3.6879454 0.11174245
14.43473 3.6879454 0.21174246
14.43473 3.6879454 0.31174245
14.43473 3.6879454 0.41174245
14.43473 3.6879454 0.51174247
14.43473 3.6879454 0.6117425
14.43473 3.6879454 0.71174252
14.43473 3.6879454 0.81174254
14.43473 3.6879454 0.91174257
14.43473 3.6879454 1.0117426
14.43473 3.6879454 1.1117426
14.492947 3.7310746 -0.088257551
14.492947 3.7310746 0.01174245
14.492947 3.7310746 0.11174245
14.492947 3.7310746 0.21174246
14.492947 3.7310746 0.31174245
14.492947 3.7310746 0.41174245
14.492947 3.7310746 0.51174247
14.492947 3.7310746 0.6117425
14.492947 3.7310746 0.71174252
14.492947 3.7310746 0.81174254
14.492947 3.7310746 0.91174257
14.492947 3.7310746 1.0117426
14.492947 3.7310746 1.1117426
14.546567 3.7798004 -0.088257551
14.546567 3.7798004 0.01174245
14.546567 3.7798004 0.11174245
14.546567 3.7798004 0.21174246
14.546567 3.7798004 0.31174245
14.546567 3.7798004 0.41174245
14.546567 3.7798004 0.51174247
14.546567 3.7798004 0.6117425
14.546567 3.7798004 0.71174252
14.546567 3.7798004 0.81174254
14.546567 3.7798004 0.91174257
14.546567 3.7798004 1.0117426
14.546567 3.7798004 1.1117426
14.595056 3.8336358 -0.088257551
14.595056 3.8336358 0.01174245
14.595056 3.8336358 0.11174245
14.595056 3.8336358 0.21174246
14.595056 3.8336358 0.31174245
14.595056 3.8336358 0.41174245
14.595056 3.8336358 0.51174247
14.595056 3.8336358 0.6117425
14.595056 3.8336358 0.71174252
14.595056 3.8336358 0.81174254
14.595056 3.8336358 0.91174257
14.595056 3.8336358 1.0117426
14.595056 3.8336358 1.1117426
14.637927 3.8920431 -0.088257551
14.637927 3.8920431 0.01174245
14.637927 3.8920431 0.11174245
14.637927 3.8920431 0.21174246
14.637927 3.8920431 0.31174245
14.637927 3.8920431 0.41174245
14.637927 3.8920431 0.51174247
14.637927 3.8920431 0.6117425
14.637927 3.8920431 0.71174252
14.637927 3.8920431 0.81174254
14.637927 3.8920431 0.91174257
14.637927 3.8920431 1.0117426
14.637927 3.8920431 1.1117426
14.674753 3.9544387 -0.088257551
14.674753 3.9544387 0.01174245
14.674753 3.9544387 0.11174245
14.674753 3.9544387 0.21174246
14.674753 3.9544387 0.31174245
14.674753 3.9544387 0.41174245
14.674753 3.9544387 0.51174247
14.674753 3.9544387 0.6117425
14.674753 3.9544387 0.71174252
14.674753 3.9544387 0.81174254
14.674753 3.9544387 0.91174257
14.674753 3.9544387 1.0117426
14.674753 3.9544387 1.1117426
14.705167 4.0201988 -0.088257551
14.705167 4.0201988 0.01174245
14.705167 4.0201988 0.11174245
14.705167 4.0201988 0.21174246
14.705167 4.0201988 0.31174245
14.705167 4.0201988 0.41174245
14.705167 4.0201988 0.51174247
14.705167 4.0201988 0.6117425
14.705167 4.0201988 0.71174252
14.705167 4.0201988 0.81174254
14.705167 4.0201988 0.91174257
14.705167 4.0201988 1.0117426
14.705167 4.0201988 1.1117426
14.728863 4.0886669 -0.088257551
14.728863 4.0886669 0.01174245
14.728863 4.0886669 0.11174245
14.728863 4.0886669 0.21174246
14.728863 4.0886669 0.31174245
14.728863 4.0886669 0.41174245
14.728863 4.0886669 0.51174247
14.728863 4.0886669 0.6117425
14.728863 4.0886669 0.71174252
14.728863 4.0886669 0.81174254
14.728863 4.0886669 0.91174257
14.728863 4.0886669 1.0117426
14.728863 4.0886669 1.1117426
14.745605 4.1591587 -0.088257551
14.745605 4.1591587 0.01174245
14.745605 4.1591587 0.11174245
14.745605 4.1591587 0.21174246
14.745605 4.1591587 0.31174245
14.745605 4.1591587 0.41174245
14.745605 4.1591587 0.51174247
14.745605 4.1591587 0.6117425
14.745605 4.1591587 0.71174252
14.745605 4.1591587 0.81174254
14.745605 4.1591587 0.91174257
14.745605 4.1591587 1.0117426
14.745605 4.1591587 1.1117426
14.755227 4.2309694 -0.088257551
14.755227 4.2309694 0.01174245
14.755227 4.2309694 0.11174245
14.755227 4.2309694 0.21174246
14.755227 4.2309694 0.31174245
14.755227 4.2309694 0.41174245
14.755227 4.2309694 0.51174247
14.755227 4.2309694 0.6117425
14.755227 4.2309694 0.71174252
14.755227 4.2309694 0.81174254
14.755227 4.2309694 0.91174257
14.755227 4.2309694 1.0117426
14.755227 4.2309694 1.1117426
26.773893 12.685932 0.87773013
26.773893 12.685932 0.87773013
26.773893 12.685932 0.87773013
26.773893 12.685932 0.87773013
26.773893 12.685932 0.87773013
26.773893 12.685932 0.87773013
26.773893 12.685932 0.87773013
26.773893 12.685932 0.87773013
26.773893 12.685932 0.87773013
26.773893 12.685932 0.87773013
26.773893 12.685932 0.87773013
26.773893 12.685932 0.87773013
26.773893 12.685932 0.87773013
26.773893 12.685932 0.87773013
26.773893 12.685932 0.87773013
26.773893 12.685932 0.87773013
26.773893 12.685932 0.87773013
26.773893 12.685932 0.87773013
26.773893 12.685932 0.87773013
26.773893 12.685932 0.87773013
26.773893 12.685932 0.87773013
26.773893 12.685932 0.87773013
26.773893 12.685932 0.87773013
26.773893 12.685932 0.87773013
26.773893 12.685932 0.87773013
26.773893 12.685932 0.87773013
26.773893 12.685932 0.87773013
26.773893 12.685932 0.87773013
26.773893 12.685932 0.87773013
26.773893 12.685932 0.87773013
26.773893 12.685932 0.87773013
26.773893 12.685932 0.87773013
26.773893 12.685932 0.87773013
26.773893 12.685932 0.87773013
26.773893 12.685932 0.87773013
26.773893 12.685932 0.87773013
26.773893 12.685932 0.87773013
26.773893 12.685932 0.87773013
26.773893 12.685932 0.87773013
26.773893 12.685932 0.87773013
26.773893 12.685932 0.87773013
26.773893 12.685932 0.87773013
26.773893 12.685932 0.87773013
26.773893 12.685932 0.87773013
26.773893 12.685932 0.87773013
26.773893 12.685932 0.87773013
26.773893 12.685932 0.87773013
26.773893 12.685932 0.87773013
26.773893 12.685932 0.87773013
26.773893 12.685932 0.87773013
26.773893 12.685932 0.87773013
26.773893 12.685932 0.87773013
26.773893 12.685932 0.87773013
26.773893 12.685932 0.87773013
26.773893 12.685932 0.87773013
26.773893 12.685932 0.87773013
26.773893 12.685932 0.87773013
26.773893 12.685932 0.87773013
26.773893 12.685932 0.87773013
26.773893 12.685932 0.87773013
26.773893 12.685932 0.87773013
26.773893 12.685932 0.87773013
26.773893 12.685932 0.87773013
26.831518 12.685932 0.87484646
26.831232 12.691685 0.87484646
26.83037 12.697381 0.87484646
26.828945 12.702962 0.87484646
26.826971 12.708373 0.87484646
26.824465 12.713559 0.87484646
26.821453 12.71847 0.87484646
26.817968 12.723056 0.87484646
26.814041 12.72727 0.87484646
26.809713 12.731071 0.87484646
26.805029 12.734423 0.87484646
26.800032 12.737288 0.87484646
26.794775 12.739641 0.87484646
26.789309 12.741458 0.87484646
26.783688 12.74272 0.87484646
26.777969 12.743414 0.87484646
26.772211 12.743533 0.87484646
26.766468 12.743077 0.87484646
26.760801 12.742051 0.87484646
26.755264 12.740463 0.87484646
26.749912 12.738331 0.87484646
26.744801 12.735675 0.87484646
26.739981 12.732522 0.87484646
26.735498 12.728904 0.87484646
26.731401 12.724856 0.87484646
26.727726 12.72042 0.87484646
26.724514 12.715638 0.87484646
26.721796 12.71056 0.87484646
26.719597 12.705236 0.87484646
26.717941 12.699719 0.87484646
26.716845 12.694064 0.87484646
26.716318 12.688329 0.87484646
26.716366 12.682569 0.87484646
26.71699 12.676842 0.87484646
26.718182 12.671206 0.87484646
26.719929 12.665718 0.87484646
26.722218 12.660432 0.87484646
26.725021 12.6554 0.87484646
26.728313 12.650674 0.87484646
26.732061 12.646299 0.87484646
26.736227 12.642321 0.87484646
26.740768 12.638779 0.87484646
26.745642 12.635707 0.87484646
26.750797 12.633138 0.87484646
26.756184 12.631096 0.87484646
26.761745 12.629601 0.87484646
26.767431 12.62867 0.87484646
26.77318 12.628311 0.87484646
26.778934 12.628528 0.87484646
26.784641 12.629317 0.87484646
26.790239 12.630673 0.87484646
26.795675 12.632582 0.87484646
26.800892 12.635022 0.87484646
26.80584 12.637972 0.87484646
26.810469 12.641401 0.87484646
26.814732 12.645275 0.87484646
26.818586 12.649555 0.87484646
26.821995 12.654199 0.87484646
26.824923 12.659159 0.87484646
26.827339 12.664387 0.87484646
26.829224 12.66983 0.87484646
26.830555 12.675435 0.87484646
26.83132 12.681144 0.87484646
26.888569 12.685932 0.86622417
26.887997 12.697381 0.86622417
26.886284 12.708714 0.86622417
26.883448 12.719821 0.86622417
26.879517 12.730589 0.86622417
26.874531 12.740911 0.86622417
26.86854 12.750683 0.86622417
26.861603 12.759809 0.86622417
26.853788 12.768195 0.86622417
26.845177 12.775761 0.86622417
26.835854 12.782429 0.86622417
26.825911 12.788132 0.86622417
26.815447 12.792814 0.86622417
26.804569 12.796429 0.86622417
26.793385 12.798939 0.86622417
26.782005 12.800321 0.86622417
26.770544 12.800559 0.86622417
26.759117 12.799652 0.86622417
26.747839 12.797608 0.86622417
26.73682 12.79445 0.86622417
26.726171 12.790206 0.86622417
26.716 12.784922 0.86622417
26.706408 12.778646 0.86622417
26.697487 12.771446 0.86622417
26.689333 12.763391 0.86622417
26.682022 12.754562 0.86622417
26.675629 12.745048 0.86622417
26.670218 12.734942 0.86622417
26.665844 12.724347 0.86622417
26.662548 12.713368 0.86622417
26.660366 12.702115 0.86622417
26.659317 12.690701 0.86622417
26.659412 12.679238 0.86622417
26.660654 12.667843 0.86622417
26.663025 12.656628 0.86622417
26.666504 12.645706 0.86622417
26.671057 12.635186 0.86622417
26.676638 12.625173 0.86622417
26.683189 12.615767 0.86622417
26.690647 12.607062 0.86622417
26.698936 12.599146 0.86622417
26.707975 12.592096 0.86622417
26.717672 12.585984 0.86622417
26.727932 12.580871 0.86622417
26.738649 12.576807 0.86622417
26.74972 12.573833 0.86622417
26.761032 12.57198 0.86622417
26.772472 12.571265 0.86622417
26.783928 12.571696 0.86622417
26.795282 12.573269 0.86622417
26.806421 12.575967 0.86622417
26.817238 12.579763 0.86622417
26.827621 12.584621 0.86622417
26.837467 12.590491 0.86622417
26.846678 12.597315 0.86622417
26.85516 12.605023 0.86622417
26.862831 12.613541 0.86622417
26.869614 12.622782 0.86622417
26.875441 12.632653 0.86622417
26.880253 12.643057 0.86622417
26.884001 12.65389 0.86622417
26.88665 12.665042 0.86622417
26.888172 12.676403 0.86622417
26.944473 12.685932 0.85194957
26.943621 12.702962 0.85194957
26.941072 12.719821 0.85194957
26.936855 12.736341 0.85194957
26.931007 12.752359 0.85194957
26.923592 12.767713 0.85194957
26.914679 12.782248 0.85194957
26.90436 12.795822 0.85194957
26.892736 12.808298 0.85194957
26.879927 12.819551 0.85194957
26.866058 12.82947 0.85194957
26.851267 12.837954 0.85194957
26.835705 12.844919 0.85194957
26.819523 12.850296 0.85194957
26.802887 12.85403 0.85194957
26.785959 12.856085 0.85194957
26.768913 12.85644 0.85194957
26.751915 12.85509 0.85194957
26.735138 12.852051 0.85194957
26.718746 12.847352 0.85194957
26.702908 12.84104 0.85194957
26.687777 12.833179 0.85194957
26.673508 12.823845 0.85194957
26.66024 12.813134 0.85194957
26.648109 12.801152 0.85194957
26.637234 12.788019 0.85194957
26.627726 12.773867 0.85194957
26.619677 12.758835 0.85194957
26.613169 12.743074 0.85194957
26.608267 12.726744 0.85194957
26.605021 12.710005 0.85194957
26.60346 12.693026 0.85194957
26.603605 12.675975 0.85194957
26.60545 12.659024 0.85194957
26.608976 12.642343 0.85194957
26.614153 12.626096 0.85194957
26.620924 12.610447 0.85194957
26.629225 12.595553 0.85194957
26.638969 12.581562 0.85194957
26.650064 12.568613 0.85194957
26.662395 12.556837 0.85194957
26.67584 12.54635 0.85194957
26.690264 12.537259 0.85194957
26.705524 12.529653 0.85194957
26.721468 12.523608 0.85194957
26.737936 12.519185 0.85194957
26.754763 12.516429 0.85194957
26.77178 12.515366 0.85194957
26.788818 12.516006 0.85194957
26.805708 12.518346 0.85194957
26.822281 12.522359 0.85194957
26.838367 12.528007 0.85194957
26.853813 12.535233 0.85194957
26.868458 12.543964 0.85194957
26.882158 12.554114 0.85194957
26.894777 12.565581 0.85194957
26.906189 12.578251 0.85194957
26.916279 12.591996 0.85194957
26.924944 12.60668 0.85194957
26.932102 12.622156 0.85194957
26.937679 12.638269 0.85194957
26.941618 12.654859 0.85194957
26.943884 12.671759 0.85194957
26.998672 12.685932 0.832165
26.997549 12.708373 0.832165
26.994192 12.730589 0.832165
26.988634 12.752359 0.832165
26.980928 12.773465 0.832165
26.971155 12.793697 0.832165
26.959412 12.812852 0.832165
26.945814 12.830739 0.832165
26.930498 12.847179 0.832165
26.913618 12.862008 0.832165
26.895342 12.875077 0.832165
26.875853 12.886257 0.832165
26.855345 12.895435 0.832165
26.834021 12.90252 0.832165
26.812098 12.907441 0.832165
26.789793 12.910149 0.832165
26.76733 12.910616 0.832165
26.744932 12.908838 0.832165
26.722822 12.904833 0.832165
26.701225 12.898641 0.832165
26.680351 12.890324 0.832165
26.660414 12.879964 0.832165
26.641611 12.867665 0.832165
26.624128 12.853551 0.832165
26.608143 12.837763 0.832165
26.593813 12.820457 0.832165
26.581282 12.801806 0.832165
26.570677 12.781999 0.832165
26.562101 12.76123 0.832165
26.555641 12.739711 0.832165
26.551363 12.717653 0.832165
26.549309 12.695279 0.832165
26.549498 12.672812 0.832165
26.551928 12.650475 0.832165
26.556578 12.628492 0.832165
26.563396 12.607083 0.832165
26.572321 12.586463 0.832165
26.583258 12.566836 0.832165
26.5961 12.548399 0.832165
26.610718 12.531337 0.832165
26.626968 12.515819 0.832165
26.644684 12.502001 0.832165
26.663692 12.49002 0.832165
26.683802 12.479997 0.832165
26.704811 12.472032 0.832165
26.726511 12.466204 0.832165
26.748684 12.462571 0.832165
26.771109 12.46117 0.832165
26.79356 12.462015 0.832165
26.815817 12.465096 0.832165
26.837654 12.470386 0.832165
26.858854 12.477828 0.832165
26.879206 12.48735 0.832165
26.898504 12.498856 0.832165
26.916559 12.51223 0.832165
26.933187 12.527341 0.832165
26.948225 12.544036 0.832165
26.961519 12.562149 0.832165
26.97294 12.581498 0.832165
26.98237 12.601892 0.832165
26.989719 12.623124 0.832165
26.994911 12.644985 0.832165
26.997896 12.667254 0.832165
27.050627 12.685932 0.80706847
27.049244 12.713559 0.80706847
27.045111 12.740911 0.80706847
27.038267 12.767713 0.80706847
27.028782 12.793697 0.80706847
27.01675 12.818605 0.80706847
27.002291 12.842188 0.80706847
26.98555 12.864208 0.80706847
26.966696 12.884448 0.80706847
26.945913 12.902705 0.80706847
26.923412 12.918796 0.80706847
26.899418 12.932559 0.80706847
26.87417 12.943858 0.80706847
26.847919 12.95258 0.80706847
26.820929 12.958639 0.80706847
26.793468 12.961972 0.80706847
26.765812 12.962547 0.80706847
26.738237 12.960359 0.80706847
26.71102 12.955428 0.80706847
26.684429 12.947804 0.80706847
26.658731 12.937565 0.80706847
26.634186 12.92481 0.80706847
26.611036 12.90967 0.80706847
26.589512 12.892294 0.80706847
26.569832 12.872855 0.80706847
26.552191 12.851549 0.80706847
26.536764 12.828588 0.80706847
26.523706 12.804202 0.80706847
26.513149 12.778635 0.80706847
26.505198 12.752141 0.80706847
26.499929 12.724985 0.80706847
26.4974 12.697439 0.80706847
26.497631 12.669778 0.80706847
26.500626 12.642279 0.80706847
26.506348 12.615215 0.80706847
26.514744 12.58886 0.80706847
26.52573 12.563473 0.80706847
26.539196 12.53931 0.80706847
26.555006 12.516611 0.80706847
26.573004 12.495605 0.80706847
26.593008 12.476501 0.80706847
26.61482 12.459488 0.80706847
26.638222 12.444738 0.80706847
26.662979 12.432399 0.80706847
26.688843 12.422592 0.80706847
26.715559 12.415418 0.80706847
26.742857 12.410945 0.80706847
26.770464 12.40922 0.80706847
26.798107 12.41026 0.80706847
26.825506 12.414055 0.80706847
26.852392 12.420566 0.80706847
26.878492 12.429729 0.80706847
26.903547 12.44145 0.80706847
26.927307 12.455616 0.80706847
26.949533 12.472082 0.80706847
26.970005 12.490685 0.80706847
26.988518 12.511239 0.80706847
27.004885 12.533539 0.80706847
27.018946 12.557361 0.80706847
27.030558 12.582467 0.80706847
27.039604 12.608607 0.80706847
27.045996 12.635521 0.80706847
27.049669 12.662937 0.80706847
27.099815 12.685932 0.7769106
27.098186 12.71847 0.7769106
27.093319 12.750683 0.7769106
27.085258 12.782248 0.7769106
27.074087 12.812852 0.7769106
27.059917 12.842188 0.7769106
27.042889 12.869962 0.7769106
27.023172 12.895897 0.7769106
27.000965 12.919734 0.7769106
26.97649 12.941236 0.7769106
26.949989 12.960186 0.7769106
26.92173 12.976397 0.7769106
26.891994 12.989704 0.7769106
26.861076 12.999977 0.7769106
26.829288 13.007112 0.7769106
26.796947 13.011038 0.7769106
26.764376 13.011715 0.7769106
26.731899 13.009137 0.7769106
26.699842 13.00333 0.7769106
26.668526 12.994352 0.7769106
26.638262 12.982292 0.7769106
26.609352 12.967271 0.7769106
26.582088 12.949439 0.7769106
26.55674 12.928974 0.7769106
26.53356 12.90608 0.7769106
26.512783 12.880987 0.7769106
26.494614 12.853946 0.7769106
26.479237 12.825225 0.7769106
26.466803 12.795113 0.7769106
26.457438 12.763909 0.7769106
26.451233 12.731927 0.7769106
26.448254 12.699485 0.7769106
26.448526 12.666907 0.7769106
26.452051 12.63452 0.7769106
26.458792 12.602646 0.7769106
26.468681 12.571605 0.7769106
26.481621 12.541705 0.7769106
26.497478 12.513247 0.7769106
26.5161 12.486515 0.7769106
26.537296 12.461775 0.7769106
26.560856 12.439274 0.7769106
26.586546 12.419238 0.7769106
26.614105 12.401867 0.7769106
26.643263 12.387334 0.7769106
26.673727 12.375784 0.7769106
26.705191 12.367333 0.7769106
26.737339 12.362066 0.7769106
26.769855 12.360035 0.7769106
26.80241 12.36126 0.7769106
26.834681 12.365729 0.7769106
26.866344 12.373398 0.7769106
26.897083 12.384189 0.7769106
26.926592 12.397994 0.7769106
26.954575 12.414678 0.7769106
26.980753 12.434071 0.7769106
27.004864 12.45598 0.7769106
27.026667 12.480187 0.7769106
27.045944 12.506451 0.7769106
27.062504 12.534507 0.7769106
27.07618 12.564076 0.7769106
27.086834 12.594864 0.7769106
27.094362 12.62656 0.7769106
27.098688 12.658851 0.7769106
27.145748 12.685932 0.74199271
27.14389 12.723056 0.74199271
27.138336 12.759809 0.74199271
27.129139 12.795823 0.74199271
27.116394 12.830739 0.74199271
27.100225 12.864208 0.74199271
27.080797 12.895897 0.74199271
27.058304 12.925488 0.74199271
27.032967 12.952684 0.74199271
27.005041 12.977216 0.74199271
26.974808 12.998837 0.74199271
26.942566 13.017331 0.74199271
26.908638 13.032515 0.74199271
26.873363 13.044235 0.74199271
26.837097 13.052376 0.74199271
26.800198 13.056855 0.74199271
26.763035 13.057628 0.74199271
26.725983 13.054687 0.74199271
26.689407 13.048061 0.74199271
26.653677 13.037818 0.74199271
26.619146 13.024058 0.74199271
26.586164 13.00692 0.74199271
26.555058 12.986575 0.74199271
26.526136 12.963226 0.74199271
26.499691 12.937106 0.74199271
26.475985 12.908477 0.74199271
26.455256 12.877624 0.74199271
26.43771 12.844855 0.74199271
26.423525 12.810499 0.74199271
26.412838 12.774899 0.74199271
26.40576 12.738408 0.74199271
26.402361 12.701394 0.74199271
26.402674 12.664226 0.74199271
26.406694 12.627275 0.74199271
26.414385 12.590908 0.74199271
26.425667 12.555492 0.74199271
26.44043 12.521379 0.74199271
26.458523 12.488911 0.74199271
26.479769 12.45841 0.74199271
26.503952 12.430183 0.74199271
26.530832 12.404512 0.74199271
26.560143 12.381653 0.74199271
26.591587 12.361834 0.74199271
26.624853 12.345252 0.74199271
26.659609 12.332075 0.74199271
26.695507 12.322433 0.74199271
26.732187 12.316424 0.74199271
26.769285 12.314106 0.74199271
26.806429 12.315504 0.74199271
26.843248 12.320602 0.74199271
26.879374 12.329351 0.74199271
26.914446 12.341663 0.74199271
26.948112 12.357415 0.74199271
26.98004 12.37645 0.74199271
27.009907 12.398576 0.74199271
27.037415 12.423573 0.74199271
27.06229 12.451192 0.74199271
27.084284 12.481156 0.74199271
27.103176 12.513166 0.74199271
27.11878 12.546904 0.74199271
27.130936 12.582029 0.74199271
27.139526 12.618193 0.74199271
27.144463 12.655034 0.74199271
27.187965 12.685932 0.7026636
27.185896 12.72727 0.7026636
27.17971 12.768195 0.7026636
27.16947 12.808298 0.7026636
27.155277 12.847179 0.7026636
27.137276 12.884448 0.7026636
27.115641 12.919734 0.7026636
27.090593 12.952684 0.7026636
27.06238 12.982968 0.7026636
27.031284 13.010285 0.7026636
26.997618 13.034361 0.7026636
26.961714 13.054955 0.7026636
26.923935 13.071862 0.7026636
26.884657 13.084914 0.7026636
26.844273 13.093979 0.7026636
26.803183 13.098966 0.7026636
26.761803 13.099827 0.7026636
26.720543 13.096552 0.7026636
26.679815 13.089174 0.7026636
26.640028 13.077767 0.7026636
26.60158 13.062446 0.7026636
26.564852 13.043363 0.7026636
26.530212 13.020707 0.7026636
26.498007 12.994707 0.7026636
26.468559 12.965622 0.7026636
26.442163 12.933743 0.7026636
26.419081 12.899386 0.7026636
26.399544 12.862898 0.7026636
26.383747 12.824641 0.7026636
26.371847 12.784999 0.7026636
26.363966 12.744367 0.7026636
26.36018 12.70315 0.7026636
26.360529 12.661761 0.7026636
26.365005 12.620615 0.7026636
26.373569 12.58012 0.7026636
26.386133 12.540684 0.7026636
26.402571 12.502698 0.7026636
26.42272 12.466543 0.7026636
26.446377 12.43258 0.7026636
26.473305 12.401149 0.7026636
26.503239 12.372562 0.7026636
26.535875 12.347108 0.7026636
26.57089 12.325038 0.7026636
26.607933 12.306575 0.7026636
26.646635 12.291902 0.7026636
26.686607 12.281165 0.7026636
26.727453 12.274473 0.7026636
26.768763 12.271893 0.7026636
26.810123 12.273449 0.7026636
26.851122 12.279127 0.7026636
26.891348 12.288869 0.7026636
26.930403 12.302579 0.7026636
26.967892 12.320119 0.7026636
27.003443 12.341313 0.7026636
27.036701 12.365952 0.7026636
27.067331 12.393787 0.7026636
27.095032 12.424541 0.7026636
27.119524 12.457908 0.7026636
27.14056 12.493552 0.7026636
27.157934 12.531119 0.7026636
27.171473 12.570233 0.7026636
27.181036 12.610502 0.7026636
27.186533 12.651525 0.7026636
27.226044 12.685932 0.65931636
27.223785 12.731071 0.65931636
27.217031 12.775761 0.65931636
27.205849 12.819551 0.65931636
27.190351 12.862008 0.65931636
27.170692 12.902705 0.65931636
27.14707 12.941236 0.65931636
27.119717 12.977216 0.65931636
27.088909 13.010285 0.65931636
27.054955 13.040114 0.65931636
27.018192 13.066404 0.65931636
26.978987 13.088892 0.65931636
26.937733 13.107354 0.65931636
26.894842 13.121606 0.65931636
26.850744 13.131504 0.65931636
26.805878 13.13695 0.65931636
26.760691 13.13789 0.65931636
26.715635 13.134315 0.65931636
26.671164 13.126258 0.65931636
26.627718 13.113802 0.65931636
26.585732 13.097072 0.65931636
26.545628 13.076233 0.65931636
26.507803 13.051495 0.65931636
26.472635 13.023104 0.65931636
26.440481 12.991343 0.65931636
26.411655 12.956532 0.65931636
26.38645 12.919017 0.65931636
26.365116 12.879172 0.65931636
26.347866 12.837398 0.65931636
26.334873 12.794109 0.65931636
26.326267 12.74974 0.65931636
26.322134 12.704733 0.65931636
26.322514 12.659538 0.65931636
26.327404 12.614608 0.65931636
26.336754 12.57039 0.65931636
26.350473 12.527326 0.65931636
26.368423 12.485847 0.65931636
26.390425 12.446367 0.65931636
26.416256 12.409281 0.65931636
26.445662 12.374959 0.65931636
26.478348 12.343744 0.65931636
26.513987 12.315948 0.65931636
26.552221 12.291849 0.65931636
26.59267 12.271688 0.65931636
26.634932 12.255665 0.65931636
26.678581 12.243941 0.65931636
26.723183 12.236634 0.65931636
26.768291 12.233816 0.65931636
26.813456 12.235516 0.65931636
26.858225 12.241715 0.65931636
26.902151 12.252354 0.65931636
26.944796 12.267324 0.65931636
26.985733 12.286477 0.65931636
27.024553 12.309621 0.65931636
27.060869 12.336525 0.65931636
27.094318 12.36692 0.65931636
27.124565 12.400503 0.65931636
27.151308 12.436938 0.65931636
27.17428 12.475861 0.65931636
27.193253 12.516882 0.65931636
27.208035 12.559593 0.65931636
27.218479 12.603566 0.65931636
27.22448 12.648361 0.65931636
27.259605 12.685932 0.61238408
27.257179 12.734423 0.61238408
27.249924 12.782429 0.61238408
27.237913 12.82947 0.61238408
27.221264 12.875077 0.61238408
27.200146 12.918796 0.61238408
27.174768 12.960186 0.61238408
27.145388 12.998837 0.61238408
27.112293 13.034361 0.61238408
27.075817 13.066404 0.61238408
27.036325 13.094646 0.61238408
26.994211 13.118803 0.61238408
26.949896 13.138636 0.61238408
26.90382 13.153944 0.61238408
26.856449 13.164577 0.61238408
26.80825 13.170428 0.61238408
26.75971 13.171437 0.61238408
26.711311 13.167596 0.61238408
26.663538 13.158942 0.61238408
26.616867 13.145562 0.61238408
26.571766 13.127589 0.61238408
26.528683 13.105204 0.61238408
26.48805 13.078629 0.61238408
26.450275 13.048131 0.61238408
26.415731 13.014013 0.61238408
26.384768 12.976618 0.61238408
26.357693 12.936317 0.61238408
26.334774 12.893517 0.61238408
26.316244 12.84864 0.61238408
26.302286 12.802139 0.61238408
26.293041 12.754477 0.61238408
26.288601 12.706129 0.61238408
26.289009 12.657579 0.61238408
26.294262 12.609314 0.61238408
26.304308 12.561813 0.61238408
26.319044 12.515553 0.61238408
26.338326 12.470995 0.61238408
26.361959 12.428585 0.61238408
26.389709 12.388745 0.61238408
26.421299 12.351876 0.61238408
26.456409 12.318344 0.61238408
26.494694 12.288486 0.61238408
26.535767 12.262597 0.61238408
26.57922 12.240939 0.61238408
26.624617 12.223727 0.61238408
26.671507 12.211134 0.61238408
26.719418 12.203284 0.61238408
26.767876 12.200257 0.61238408
26.816391 12.202083 0.61238408
26.864483 12.208742 0.61238408
26.911671 12.22017 0.61238408
26.957481 12.236252 0.61238408
27.001457 12.256826 0.61238408
27.043159 12.281689 0.61238408
27.08217 12.31059 0.61238408
27.118103 12.343242 0.61238408
27.150595 12.379317 0.61238408
27.179323 12.418456 0.61238408
27.204 12.460268 0.61238408
27.22438 12.504334 0.61238408
27.240259 12.550215 0.61238408
27.251478 12.597452 0.61238408
27.257927 12.645573 0.61238408
27.288315 12.685932 0.56233567
27.285744 12.737288 0.56233567
27.278061 12.788132 0.56233567
27.265339 12.837954 0.56233567
27.247707 12.886257 0.56233567
27.22534 12.932559 0.56233567
27.198463 12.976397 0.56233567
27.167345 13.017331 0.56233567
27.132294 13.054955 0.56233567
27.093662 13.088892 0.56233567
27.051836 13.118803 0.56233567
27.007233 13.144388 0.56233567
26.960299 13.165393 0.56233567
26.911501 13.181607 0.56233567
26.861328 13.192868 0.56233567
26.810282 13.199065 0.56233567
26.758873 13.200134 0.56233567
26.707613 13.196066 0.56233567
26.657015 13.1869 0.56233567
26.607586 13.172729 0.56233567
26.559818 13.153694 0.56233567
26.514191 13.129986 0.56233567
26.471155 13.10184 0.56233567
26.431147 13.069539 0.56233567
26.394562 13.033405 0.56233567
26.361769 12.993799 0.56233567
26.333092 12.951118 0.56233567
26.308819 12.905786 0.56233567
26.289194 12.858257 0.56233567
26.274412 12.809008 0.56233567
26.26462 12.758528 0.56233567
26.259916 12.707322 0.56233567
26.260349 12.655904 0.56233567
26.265913 12.604785 0.56233567
26.276552 12.554477 0.56233567
26.29216 12.505483 0.56233567
26.312582 12.458291 0.56233567
26.337612 12.413374 0.56233567
26.367002 12.37118 0.56233567
26.400457 12.332131 0.56233567
26.437645 12.296618 0.56233567
26.478191 12.264994 0.56233567
26.521692 12.237576 0.56233567
26.567713 12.214637 0.56233567
26.615793 12.196408 0.56233567
26.665455 12.18307 0.56233567
26.716198 12.174756 0.56233567
26.767519 12.171551 0.56233567
26.818903 12.173484 0.56233567
26.869839 12.180537 0.56233567
26.919813 12.19264 0.56233567
26.968332 12.209673 0.56233567
27.014908 12.231463 0.56233567
27.059074 12.257795 0.56233567
27.100391 12.288404 0.56233567
27.138447 12.322987 0.56233567
27.172859 12.361194 0.56233567
27.203287 12.402646 0.56233567
27.229424 12.44693 0.56233567
27.251007 12.493601 0.56233567
27.267824 12.542193 0.56233567
27.279707 12.592222 0.56233567
27.286535 12.643188 0.56233567
27.311884 12.685932 0.50967121
27.309196 12.739641 0.50967121
27.301159 12.792814 0.50967121
27.287855 12.844919 0.50967121
27.269415 12.895435 0.50967121
27.246023 12.943858 0.50967121
27.217916 12.989704 0.50967121
27.185371 13.032515 0.50967121
27.148714 13.071862 0.50967121
27.108313 13.107354 0.50967121
27.064571 13.138636 0.50967121
27.017923 13.165393 0.50967121
26.968838 13.18736 0.50967121
26.917805 13.204317 0.50967121
26.865334 13.216094 0.50967121
26.811949 13.222574 0.50967121
26.758184 13.223693 0.50967121
26.704576 13.219438 0.50967121
26.651661 13.209852 0.50967121
26.599966 13.195032 0.50967121
26.550011 13.175125 0.50967121
26.502291 13.150331 0.50967121
26.457285 13.120895 0.50967121
26.415443 13.087114 0.50967121
26.377182 13.049325 0.50967121
26.342886 13.007904 0.50967121
26.312897 12.963267 0.50967121
26.287512 12.915858 0.50967121
26.266987 12.866153 0.50967121
26.251528 12.814646 0.50967121
26.241287 12.761854 0.50967121
26.236368 12.708302 0.50967121
26.23682 12.654528 0.50967121
26.24264 12.601068 0.50967121
26.253765 12.548454 0.50967121
26.270088 12.497215 0.50967121
26.291447 12.447861 0.50967121
26.317623 12.400887 0.50967121
26.34836 12.356759 0.50967121
26.383348 12.315922 0.50967121
26.422239 12.278781 0.50967121
26.464643 12.245708 0.50967121
26.510138 12.217033 0.50967121
26.558266 12.193045 0.50967121
26.608551 12.17398 0.50967121
26.660486 12.16003 0.50967121
26.713556 12.151337 0.50967121
26.767227 12.147984 0.50967121
26.820965 12.150005 0.50967121
26.874233 12.157382 0.50967121
26.9265 12.17004 0.50967121
26.97724 12.187853 0.50967121
27.025949 12.210642 0.50967121
27.07214 12.23818 0.50967121
27.115351 12.270191 0.50967121
27.155149 12.306357 0.50967121
27.191139 12.346315 0.50967121
27.22296 12.389668 0.50967121
27.250294 12.435979 0.50967121
27.272867 12.484789 0.50967121
27.290455 12.535607 0.50967121
27.302881 12.587929 0.50967121
27.310022 12.641229 0.50967121
27.330076 12.685932 0.45491689
27.327299 12.741458 0.45491689
27.318991 12.796429 0.45491689
27.305235 12.850296 0.45491689
27.286173 12.90252 0.45491689
27.26199 12.95258 0.45491689
27.232931 12.999977 0.45491689
27.199286 13.044235 0.45491689
27.16139 13.084914 0.45491689
27.119623 13.121606 0.45491689
27.0744 13.153944 0.45491689
27.026176 13.181607 0.45491689
26.975431 13.204317 0.45491689
26.922672 13.221848 0.45491689
26.868425 13.234023 0.45491689
26.813236 13.240723 0.45491689
26.757652 13.241879 0.45491689
26.702232 13.23748 0.45491689
26.647528 13.227571 0.45491689
26.594086 13.212249 0.45491689
26.542439 13.191669 0.45491689
26.493107 13.166035 0.45491689
26.446579 13.135605 0.45491689
26.403322 13.100681 0.45491689
26.363768 13.061614 0.45491689
26.32831 13.018793 0.45491689
26.297306 12.972646 0.45491689
26.271063 12.923634 0.45491689
26.249846 12.872248 0.45491689
26.233862 12.818999 0.45491689
26.223276 12.764421 0.45491689
26.218191 12.709059 0.45491689
26.218658 12.653466 0.45491689
26.224674 12.598197 0.45491689
26.236176 12.543805 0.45491689
26.253052 12.490833 0.45491689
26.275131 12.43981 0.45491689
26.302195 12.391247 0.45491689
26.333969 12.345628 0.45491689
26.370142 12.303409 0.45491689
26.410347 12.265012 0.45491689
26.454185 12.230821 0.45491689
26.501217 12.201177 0.45491689
26.550974 12.176376 0.45491689
26.602959 12.156667 0.45491689
26.656651 12.142246 0.45491689
26.711515 12.133258 0.45491689
26.767002 12.129791 0.45491689
26.822557 12.131882 0.45491689
26.877626 12.139508 0.45491689
26.93166 12.152594 0.45491689
26.984118 12.171009 0.45491689
27.034473 12.194569 0.45491689
27.082226 12.223038 0.45491689
27.126898 12.256132 0.45491689
27.168043 12.293521 0.45491689
27.20525 12.334831 0.45491689
27.238146 12.379648 0.45491689
27.266403 12.427526 0.45491689
27.289742 12.477986 0.45491689
27.307924 12.530524 0.45491689
27.32077 12.584615 0.45491689
27.328154 12.639717 0.45491689
27.342712 12.685932 0.39861977
27.33987 12.74272 0.39861977
27.331375 12.798939 0.39861977
27.317308 12.85403 0.39861977
27.297812 12.907441 0.39861977
27.273079 12.958639 0.39861977
27.243361 13.007112 0.39861977
27.20895 13.052376 0.39861977
27.170195 13.093979 0.39861977
27.127478 13.131504 0.39861977
27.081228 13.164577 0.39861977
27.031908 13.192868 0.39861977
26.980009 13.216094 0.39861977
26.926052 13.234023 0.39861977
26.870573 13.246475 0.39861977
26.814131 13.253327 0.39861977
26.757284 13.254509 0.39861977
26.700603 13.25001 0.39861977
26.644655 13.239876 0.39861977
26.59 13.224206 0.39861977
26.53718 13.203158 0.39861977
26.486727 13.176943 0.39861977
26.439142 13.145821 0.39861977
26.394903 13.110104 0.39861977
26.35445 13.070149 0.39861977
26.318188 13.026355 0.39861977
26.286478 12.979159 0.39861977
26.25964 12.929034 0.39861977
26.237938 12.87648 0.39861977
26.221594 12.822022 0.39861977
26.210766 12.766205 0.39861977
26.205566 12.709584 0.39861977
26.206043 12.652728 0.39861977
26.212194 12.596204 0.39861977
26.223959 12.540576 0.39861977
26.241219 12.486401 0.39861977
26.2638 12.434218 0.39861977
26.291477 12.384552 0.39861977
26.323975 12.337896 0.39861977
26.360968 12.294718 0.39861977
26.402088 12.255448 0.39861977
26.446922 12.220481 0.39861977
26.495022 12.190163 0.39861977
26.54591 12.1648 0.39861977
26.599075 12.144643 0.39861977
26.653988 12.129894 0.39861977
26.710098 12.120701 0.39861977
26.766846 12.117156 0.39861977
26.823664 12.119294 0.39861977
26.879984 12.127093 0.39861977
26.935246 12.140477 0.39861977
26.988894 12.15931 0.39861977
27.040394 12.183405 0.39861977
27.089231 12.212522 0.39861977
27.134918 12.246367 0.39861977
27.176998 12.284606 0.39861977
27.21505 12.326854 0.39861977
27.248693 12.37269 0.39861977
27.277594 12.421656 0.39861977
27.30146 12.473262 0.39861977
27.320057 12.526994 0.39861977
27.333195 12.582313 0.39861977
27.340746 12.638667 0.39861977
27.349667 12.685932 0.34134242
27.346788 12.743414 0.34134242
27.338188 12.800321 0.34134242
27.32395 12.856085 0.34134242
27.304214 12.910149 0.34134242
27.279181 12.961972 0.34134242
27.2491 13.011038 0.34134242
27.214268 13.056855 0.34134242
27.175037 13.098966 0.34134242
27.1318 13.13695 0.34134242
27.084984 13.170428 0.34134242
27.035061 13.199065 0.34134242
26.982529 13.222574 0.34134242
26.927912 13.240723 0.34134242
26.871756 13.253327 0.34134242
26.814621 13.260262 0.34134242
26.75708 13.261459 0.34134242
26.699709 13.256906 0.34134242
26.643076 13.246647 0.34134242
26.587751 13.230785 0.34134242
26.534286 13.20948 0.34134242
26.483217 13.182944 0.34134242
26.435051 13.151442 0.34134242
26.39027 13.115289 0.34134242
26.349323 13.074845 0.34134242
26.312616 13.030516 0.34134242
26.280521 12.982744 0.34134242
26.253353 12.932006 0.34134242
26.231388 12.878809 0.34134242
26.214842 12.823686 0.34134242
26.203882 12.767185 0.34134242
26.19862 12.709873 0.34134242
26.199102 12.652323 0.34134242
26.20533 12.595107 0.34134242
26.217237 12.538799 0.34134242
26.234707 12.483961 0.34134242
26.257565 12.431142 0.34134242
26.28558 12.380868 0.34134242
26.318476 12.333642 0.34134242
26.355921 12.289936 0.34134242
26.397543 12.250187 0.34134242
26.442924 12.214791 0.34134242
26.491613 12.184103 0.34134242
26.543123 12.158429 0.34134242
26.596939 12.138026 0.34134242
26.652521 12.123097 0.34134242
26.709318 12.113792 0.34134242
26.76676 12.110204 0.34134242
26.824272 12.112368 0.34134242
26.881281 12.120263 0.34134242
26.937218 12.13381 0.34134242
26.991522 12.152873 0.34134242
27.043652 12.177262 0.34134242
27.093086 12.206735 0.34134242
27.13933 12.240994 0.34134242
27.181925 12.2797 0.34134242
27.220442 12.322465 0.34134242
27.254498 12.368861 0.34134242
27.283751 12.418426 0.34134242
27.307909 12.470662 0.34134242
27.326733 12.52505 0.34134242
27.340033 12.581046 0.34134242
27.347675 12.638089 0.34134242
27.350866 12.685932 0.2836571
27.347982 12.743533 0.2836571
27.339365 12.800559 0.2836571
27.325096 12.85644 0.2836571
27.305321 12.910616 0.2836571
27.280233 12.962547 0.2836571
27.25009 13.011715 0.2836571
27.215185 13.057628 0.2836571
27.175873 13.099827 0.2836571
27.132545 13.13789 0.2836571
27.085632 13.171437 0.2836571
27.035606 13.200134 0.2836571
26.982964 13.223693 0.2836571
26.928232 13.241879 0.2836571
26.87196 13.254509 0.2836571
26.814707 13.261459 0.2836571
26.757046 13.262658 0.2836571
26.699554 13.258095 0.2836571
26.642803 13.247815 0.2836571
26.587364 13.231921 0.2836571
26.533789 13.210571 0.2836571
26.482611 13.18398 0.2836571
26.434345 13.152412 0.2836571
26.389471 13.116183 0.2836571
26.348438 13.075656 0.2836571
26.311655 13.031234 0.2836571
26.279493 12.983362 0.2836571
26.25227 12.932519 0.2836571
26.230257 12.879211 0.2836571
26.213678 12.823973 0.2836571
26.202696 12.767355 0.2836571
26.19742 12.709924 0.2836571
26.197905 12.652252 0.2836571
26.204145 12.594918 0.2836571
26.216078 12.538492 0.2836571
26.233583 12.483541 0.2836571
26.256489 12.430611 0.2836571
26.284563 12.380232 0.2836571
26.317526 12.332908 0.2836571
26.355049 12.289111 0.2836571
26.396759 12.249279 0.2836571
26.442236 12.21381 0.2836571
26.491026 12.183058 0.2836571
26.542643 12.157331 0.2836571
26.596569 12.136885 0.2836571
26.652269 12.121924 0.2836571
26.709183 12.1126 0.2836571
26.766745 12.109004 0.2836571
26.824377 12.111173 0.2836571
26.881504 12.119084 0.2836571
26.937557 12.132659 0.2836571
26.991974 12.151762 0.2836571
27.044212 12.176203 0.2836571
27.09375 12.205736 0.2836571
27.140093 12.240067 0.2836571
27.182775 12.278853 0.2836571
27.221373 12.321708 0.2836571
27.255499 12.3682 0.2836571
27.284813 12.417868 0.2836571
27.309023 12.470214 0.2836571
27.327885 12.524715 0.2836571
27.341211 12.580828 0.2836571
27.348871 12.63799 0.2836571
27.3463 12.685932 0.22614017
27.343441 12.743077 0.22614017
27.33489 12.799652 0.22614017
27.320734 12.85509 0.22614017
27.301115 12.908838 0.22614017
27.276228 12.960359 0.22614017
27.246321 13.009137 0.22614017
27.211695 13.054687 0.22614017
27.172693 13.096552 0.22614017
27.129707 13.134315 0.22614017
27.083166 13.167596 0.22614017
27.033535 13.196066 0.22614017
26.98131 13.219438 0.22614017
26.927011 13.23748 0.22614017
26.871183 13.25001 0.22614017
26.814384 13.256906 0.22614017
26.757179 13.258095 0.22614017
26.700142 13.253568 0.22614017
26.643841 13.243369 0.22614017
26.58884 13.227601 0.22614017
26.535688 13.206421 0.22614017
26.484917 13.180039 0.22614017
26.437031 13.148722 0.22614017
26.392511 13.11278 0.22614017
26.351805 13.072572 0.22614017
26.315313 13.028502 0.22614017
26.283403 12.981009 0.22614017
26.256395 12.930568 0.22614017
26.234558 12.877682 0.22614017
26.218109 12.822881 0.22614017
26.207214 12.76671 0.22614017
26.201981 12.709734 0.22614017
26.202463 12.652519 0.22614017
26.208652 12.595638 0.22614017
26.220491 12.53966 0.22614017
26.237858 12.485142 0.22614017
26.260582 12.432631 0.22614017
26.288435 12.38265 0.22614017
26.321136 12.335701 0.22614017
26.358364 12.292251 0.22614017
26.399742 12.252733 0.22614017
26.444859 12.217545 0.22614017
26.493263 12.187037 0.22614017
26.544472 12.161512 0.22614017
26.597973 12.141229 0.22614017
26.653231 12.126388 0.22614017
26.709696 12.117136 0.22614017
26.7668 12.113569 0.22614017
26.823977 12.115721 0.22614017
26.880653 12.123569 0.22614017
26.936262 12.137036 0.22614017
26.99025 12.155989 0.22614017
27.042074 12.180236 0.22614017
27.091221 12.209536 0.22614017
27.137196 12.243595 0.22614017
27.179541 12.282075 0.22614017
27.217833 12.32459 0.22614017
27.251688 12.370714 0.22614017
27.280769 12.419989 0.22614017
27.304789 12.471921 0.22614017
27.323502 12.52599 0.22614017
27.336723 12.581659 0.22614017
27.34432 12.63837 0.22614017
27.336016 12.685932 0.16936634
27.333208 12.742051 0.16936634
27.324812 12.797608 0.16936634
27.310909 12.852051 0.16936634
27.291643 12.904833 0.16936634
27.267202 12.955428 0.16936634
27.237833 13.00333 0.16936634
27.203829 13.048061 0.16936634
27.165527 13.089174 0.16936634
27.123314 13.126258 0.16936634
27.07761 13.158942 0.16936634
27.02887 13.1869 0.16936634
26.977583 13.209852 0.16936634
26.924261 13.227571 0.16936634
26.869436 13.239876 0.16936634
26.813656 13.246647 0.16936634
26.757479 13.247815 0.16936634
26.701468 13.243369 0.16936634
26.646177 13.233354 0.16936634
26.592165 13.217869 0.16936634
26.539968 13.197069 0.16936634
26.490108 13.171162 0.16936634
26.443083 13.140407 0.16936634
26.399364 13.10511 0.16936634
26.359388 13.065625 0.16936634
26.323553 13.022347 0.16936634
26.292217 12.975707 0.16936634
26.265694 12.926172 0.16936634
26.244249 12.874237 0.16936634
26.228096 12.82042 0.16936634
26.217396 12.76526 0.16936634
26.212257 12.709306 0.16936634
26.212729 12.653119 0.16936634
26.218809 12.59726 0.16936634
26.230434 12.542287 0.16936634
26.24749 12.48875 0.16936634
26.269804 12.437182 0.16936634
26.297157 12.3881 0.16936634
26.329271 12.341993 0.16936634
26.365829 12.299324 0.16936634
26.406466 12.260517 0.16936634
26.450771 12.225961 0.16936634
26.498306 12.196 0.16936634
26.548594 12.170935 0.16936634
26.601133 12.151015 0.16936634
26.655399 12.13644 0.16936634
26.710848 12.127356 0.16936634
26.766928 12.123853 0.16936634
26.823078 12.125965 0.16936634
26.878735 12.133673 0.16936634
26.933346 12.146898 0.16936634
26.986362 12.16551 0.16936634
27.037256 12.189322 0.16936634
27.085518 12.218095 0.16936634
27.130667 12.251543 0.16936634
27.172251 12.28933 0.16936634
27.209856 12.331081 0.16936634
27.243103 12.376378 0.16936634
27.271664 12.424767 0.16936634
27.29525 12.475766 0.16936634
27.313627 12.528865 0.16936634
27.326611 12.583532 0.16936634
27.334072 12.639224 0.16936634
27.320114 12.685932 0.1139029
27.317387 12.740463 0.1139029
27.309227 12.79445 0.1139029
27.295719 12.847352 0.1139029
27.276997 12.898641 0.1139029
27.253248 12.947804 0.1139029
27.22471 12.994352 0.1139029
27.191668 13.037818 0.1139029
27.154449 13.077767 0.1139029
27.11343 13.113802 0.1139029
27.069017 13.145562 0.1139029
27.021658 13.172729 0.1139029
26.971821 13.195032 0.1139029
26.920008 13.212249 0.1139029
26.866734 13.224206 0.1139029
26.812531 13.230785 0.1139029
26.757944 13.231921 0.1139029
26.703516 13.227601 0.1139029
26.64979 13.217869 0.1139029
26.597305 13.202822 0.1139029
26.546585 13.182611 0.1139029
26.498135 13.157435 0.1139029
26.452442 13.12755 0.1139029
26.40996 13.093252 0.1139029
26.371113 13.054885 0.1139029
26.336292 13.012831 0.1139029
26.305841 12.96751 0.1139029
26.280069 12.919376 0.1139029
26.259232 12.86891 0.1139029
26.243534 12.816616 0.1139029
26.233137 12.763016 0.1139029
26.228144 12.708645 0.1139029
26.228603 12.654047 0.1139029
26.23451 12.599769 0.1139029
26.245808 12.54635 0.1139029
26.262381 12.494328 0.1139029
26.284063 12.444219 0.1139029
26.310642 12.396524 0.1139029
26.341848 12.351723 0.1139029
26.377373 12.31026 0.1139029
26.416859 12.272551 0.1139029
26.459911 12.238972 0.1139029
26.506102 12.209859 0.1139029
26.554968 12.185503 0.1139029
26.60602 12.166147 0.1139029
26.658751 12.151984 0.1139029
26.712631 12.143157 0.1139029
26.767126 12.139752 0.1139029
26.821686 12.141806 0.1139029
26.875769 12.149295 0.1139029
26.928835 12.162147 0.1139029
26.980352 12.180231 0.1139029
27.029806 12.203369 0.1139029
27.076704 12.231329 0.1139029
27.120575 12.26383 0.1139029
27.160984 12.30055 0.1139029
27.197523 12.34112 0.1139029
27.22983 12.385135 0.1139029
27.257582 12.432155 0.1139029
27.280502 12.481711 0.1139029
27.298359 12.533308 0.1139029
27.310976 12.58643 0.1139029
27.318226 12.640545 0.1139029
27.298756 12.685932 0.060304031
27.296135 12.738331 0.060304031
27.288294 12.790206 0.060304031
27.275314 12.84104 0.060304031
27.257324 12.890324 0.060304031
27.234505 12.937565 0.060304031
27.207081 12.982292 0.060304031
27.175331 13.024058 0.060304031
27.139568 13.062446 0.060304031
27.100153 13.097072 0.060304031
27.057478 13.127589 0.060304031
27.011969 13.153694 0.060304031
26.964081 13.175125 0.060304031
26.914293 13.191669 0.060304031
26.863102 13.203158 0.060304031
26.81102 13.20948 0.060304031
26.758568 13.210571 0.060304031
26.706268 13.206421 0.060304031
26.654644 13.197069 0.060304031
26.60421 13.182611 0.060304031
26.555473 13.163189 0.060304031
26.508919 13.138999 0.060304031
26.465012 13.110282 0.060304031
26.424191 13.077326 0.060304031
26.386862 13.040458 0.060304031
26.353403 13.000049 0.060304031
26.324144 12.9565 0.060304031
26.299379 12.910249 0.060304031
26.279356 12.861755 0.060304031
26.264273 12.811505 0.060304031
26.254282 12.760001 0.060304031
26.249485 12.707757 0.060304031
26.249926 12.655294 0.060304031
26.255602 12.603138 0.060304031
26.266457 12.551808 0.060304031
26.282381 12.50182 0.060304031
