# .PCD v0.7 - Point Cloud Data file format
VERSION 0.7
FIELDS x y z
SIZE 4 4 4
TYPE F F F
COUNT 1 1 1
WIDTH 1548
HEIGHT 1
VIEWPOINT 0 0 0 1 0 0 0
POINTS 1548
DATA ascii
7.7057447 -4.86306 0.58883911
7.7057447 -4.86306 0.68883914
7.7057447 -4.86306 0.78883916
7.7057447 -4.86306 0.88883919
7.7057447 -4.86306 0.98883921
7.7057447 -4.86306 1.0888392
7.7057447 -4.86306 1.1888392
7.7057447 -4.86306 1.2888392
7.7057447 -4.86306 1.3888392
7.7057447 -4.7630601 0.18883914
7.7057447 -4.7630601 0.28883913
7.7057447 -4.7630601 0.38883913
7.7057447 -4.7630601 0.48883912
7.7057447 -4.7630601 0.58883911
7.7057447 -4.7630601 0.68883914
7.7057447 -4.7630601 0.78883916
7.7057447 -4.7630601 0.88883919
7.7057447 -4.7630601 0.98883921
7.7057447 -4.7630601 1.0888392
7.7057447 -4.7630601 1.1888392
7.7057447 -4.7630601 1.2888392
7.7057447 -4.7630601 1.3888392
7.8057446 -5.863059 0.18883914
7.8057446 -5.863059 0.28883913
7.8057446 -5.863059 0.38883913
7.8057446 -5.863059 0.48883912
7.8057446 -5.863059 0.58883911
7.8057446 -5.863059 0.68883914
7.8057446 -5.863059 0.78883916
7.8057446 -5.863059 0.88883919
7.8057446 -5.863059 0.98883921
7.8057446 -5.863059 1.0888392
7.8057446 -5.863059 1.1888392
7.8057446 -5.863059 1.2888392
7.8057446 -5.863059 1.3888392
7.8057446 -5.7630591 0.18883914
7.8057446 -5.7630591 0.28883913
7.8057446 -5.7630591 0.38883913
7.8057446 -5.7630591 0.48883912
7.8057446 -5.7630591 0.58883911
7.8057446 -5.7630591 0.68883914
7.8057446 -5.7630591 0.78883916
7.8057446 -5.7630591 0.88883919
7.8057446 -5.7630591 0.98883921
7.8057446 -5.7630591 1.0888392
7.8057446 -5.7630591 1.1888392
7.8057446 -5.7630591 1.2888392
7.8057446 -5.7630591 1.3888392
7.8057446 -5.6630592 0.18883914
7.8057446 -5.6630592 0.28883913
7.8057446 -5.6630592 0.38883913
7.8057446 -5.6630592 0.48883912
7.8057446 -5.6630592 0.58883911
7.8057446 -5.6630592 0.68883914
7.8057446 -5.6630592 0.78883916
7.8057446 -5.6630592 0.88883919
7.8057446 -5.6630592 0.98883921
7.8057446 -5.6630592 1.0888392
7.8057446 -5.6630592 1.1888392
7.8057446 -5.6630592 1.2888392
7.8057446 -5.6630592 1.3888392
7.8057446 -5.5630593 0.18883914
7.8057446 -5.5630593 0.28883913
7.8057446 -5.5630593 0.38883913
7.8057446 -5.5630593 0.48883912
7.8057446 -5.5630593 0.58883911
7.8057446 -5.5630593 0.68883914
7.8057446 -5.5630593 0.78883916
7.8057446 -5.5630593 0.88883919
7.8057446 -5.5630593 0.98883921
7.8057446 -5.5630593 1.0888392
7.8057446 -5.5630593 1.1888392
7.8057446 -5.5630593 1.2888392
7.8057446 -5.5630593 1.3888392
7.8057446 -5.4630594 0.18883914
7.8057446 -5.4630594 0.28883913
7.8057446 -5.4630594 0.38883913
7.8057446 -5.4630594 0.48883912
7.8057446 -5.4630594 0.58883911
7.8057446 -5.4630594 0.68883914
7.8057446 -5.4630594 0.78883916
7.8057446 -5.4630594 0.88883919
7.8057446 -5.4630594 0.98883921
7.8057446 -5.4630594 1.0888392
7.8057446 -5.4630594 1.1888392
7.8057446 -5.4630594 1.2888392
7.8057446 -5.4630594 1.3888392
7.8057446 -5.3630595 0.18883914
7.8057446 -5.3630595 0.28883913
7.8057446 -5.3630595 0.38883913
7.8057446 -5.3630595 0.48883912
7.8057446 -5.3630595 0.58883911
7.8057446 -5.3630595 0.68883914
7.8057446 -5.3630595 0.78883916
7.8057446 -5.3630595 0.88883919
7.8057446 -5.3630595 0.98883921
7.8057446 -5.3630595 1.0888392
7.8057446 -5.3630595 1.1888392
7.8057446 -5.3630595 1.2888392
7.8057446 -5.3630595 1.3888392
7.8057446 -5.2630596 0.18883914
7.8057446 -5.2630596 0.28883913
7.8057446 -5.2630596 0.38883913
7.8057446 -5.2630596 0.48883912
7.8057446 -5.2630596 0.58883911
7.8057446 -5.2630596 0.68883914
7.8057446 -5.2630596 0.78883916
7.8057446 -5.2630596 0.88883919
7.8057446 -5.2630596 0.98883921
7.8057446 -5.2630596 1.0888392
7.8057446 -5.2630596 1.1888392
7.8057446 -5.2630596 1.2888392
7.8057446 -5.2630596 1.3888392
7.8057446 -5.1630597 0.18883914
7.8057446 -5.1630597 0.28883913
7.8057446 -5.1630597 0.38883913
7.8057446 -5.1630597 0.48883912
7.8057446 -5.1630597 0.58883911
7.8057446 -5.1630597 0.68883914
7.8057446 -5.1630597 0.78883916
7.8057446 -5.1630597 0.88883919
7.8057446 -5.1630597 0.98883921
7.8057446 -5.1630597 1.0888392
7.8057446 -5.1630597 1.1888392
7.8057446 -5.1630597 1.2888392
7.8057446 -5.1630597 1.3888392
7.8057446 -5.0630598 0.18883914
7.8057446 -5.0630598 0.28883913
7.8057446 -5.0630598 0.38883913
7.8057446 -5.0630598 0.48883912
7.8057446 -5.0630598 0.58883911
7.8057446 -5.0630598 0.68883914
7.8057446 -5.0630598 0.78883916
7.8057446 -5.0630598 0.88883919
7.8057446 -5.0630598 0.98883921
7.8057446 -5.0630598 1.0888392
7.8057446 -5.0630598 1.1888392
7.8057446 -5.0630598 1.2888392
7.8057446 -5.0630598 1.3888392
7.8057446 -4.9630599 0.18883914
7.8057446 -4.9630599 0.28883913
7.8057446 -4.9630599 0.38883913
7.8057446 -4.9630599 0.48883912
7.8057446 -4.9630599 0.58883911
7.8057446 -4.9630599 0.68883914
7.8057446 -4.9630599 0.78883916
7.8057446 -4.9630599 0.88883919
7.8057446 -4.9630599 0.98883921
7.8057446 -4.9630599 1.0888392
7.8057446 -4.9630599 1.1888392
7.8057446 -4.9630599 1.2888392
7.8057446 -4.9630599 1.3888392
7.8057446 -4.86306 0.18883914
7.8057446 -4.86306 0.28883913
7.8057446 -4.86306 0.38883913
7.8057446 -4.86306 0.48883912
7.8057446 -4.86306 0.58883911
7.8057446 -4.86306 0.68883914
7.8057446 -4.86306 0.78883916
7.8057446 -4.86306 0.88883919
7.8057446 -4.86306 0.98883921
7.8057446 -4.86306 1.0888392
7.8057446 -4.86306 1.1888392
7.8057446 -4.86306 1.2888392
7.8057446 -4.86306 1.3888392
7.8057446 -4.7630601 0.18883914
7.8057446 -4.7630601 0.28883913
7.8057446 -4.7630601 0.38883913
7.8057446 -4.7630601 0.48883912
7.8057446 -4.7630601 0.58883911
7.8057446 -4.7630601 0.68883914
7.8057446 -4.7630601 0.78883916
7.8057446 -4.7630601 0.88883919
7.8057446 -4.7630601 0.98883921
7.8057446 -4.7630601 1.0888392
7.8057446 -4.7630601 1.1888392
7.8057446 -4.7630601 1.2888392
7.8057446 -4.7630601 1.3888392
7.9057446 -5.863059 0.18883914
7.9057446 -5.863059 0.28883913
7.9057446 -5.863059 0.38883913
7.9057446 -5.863059 0.48883912
7.9057446 -5.863059 0.58883911
7.9057446 -5.863059 0.68883914
7.9057446 -5.863059 0.78883916
7.9057446 -5.863059 0.88883919
7.9057446 -5.863059 0.98883921
7.9057446 -5.863059 1.0888392
7.9057446 -5.863059 1.1888392
7.9057446 -5.863059 1.2888392
7.9057446 -5.863059 1.3888392
7.9057446 -5.7630591 0.18883914
7.9057446 -5.7630591 0.28883913
7.9057446 -5.7630591 0.38883913
7.9057446 -5.7630591 0.48883912
7.9057446 -5.7630591 0.58883911
7.9057446 -5.7630591 0.68883914
7.9057446 -5.7630591 0.78883916
7.9057446 -5.7630591 0.88883919
7.9057446 -5.7630591 0.98883921
7.9057446 -5.7630591 1.0888392
7.9057446 -5.7630591 1.1888392
7.9057446 -5.7630591 1.2888392
7.9057446 -5.7630591 1.3888392
7.9057446 -5.6630592 0.18883914
7.9057446 -5.6630592 0.28883913
7.9057446 -5.6630592 0.38883913
7.9057446 -5.6630592 0.48883912
7.9057446 -5.6630592 0.58883911
7.9057446 -5.6630592 0.68883914
7.9057446 -5.6630592 0.78883916
7.9057446 -5.6630592 0.88883919
7.9057446 -5.6630592 0.98883921
7.9057446 -5.6630592 1.0888392
7.9057446 -5.6630592 1.1888392
7.9057446 -5.6630592 1.2888392
7.9057446 -5.6630592 1.3888392
7.9057446 -5.5630593 0.18883914
7.9057446 -5.5630593 0.28883913
7.9057446 -5.5630593 0.38883913
7.9057446 -5.5630593 0.48883912
7.9057446 -5.5630593 0.58883911
7.9057446 -5.5630593 0.68883914
7.9057446 -5.5630593 0.78883916
7.9057446 -5.5630593 0.88883919
7.9057446 -5.5630593 0.98883921
7.9057446 -5.5630593 1.0888392
7.9057446 -5.5630593 1.1888392
7.9057446 -5.5630593 1.2888392
7.9057446 -5.5630593 1.3888392
7.9057446 -5.4630594 0.18883914
7.9057446 -5.4630594 0.28883913
7.9057446 -5.4630594 0.38883913
7.9057446 -5.4630594 0.48883912
7.9057446 -5.4630594 0.58883911
7.9057446 -5.4630594 0.68883914
7.9057446 -5.4630594 0.78883916
7.9057446 -5.4630594 0.88883919
7.9057446 -5.4630594 0.98883921
7.9057446 -5.4630594 1.0888392
7.9057446 -5.4630594 1.1888392
7.9057446 -5.4630594 1.2888392
7.9057446 -5.4630594 1.3888392
7.9057446 -5.3630595 0.18883914
7.9057446 -5.3630595 0.28883913
7.9057446 -5.3630595 0.38883913
7.9057446 -5.3630595 0.48883912
7.9057446 -5.3630595 0.58883911
7.9057446 -5.3630595 0.68883914
7.9057446 -5.3630595 0.78883916
7.9057446 -5.3630595 0.88883919
7.9057446 -5.3630595 0.98883921
7.9057446 -5.3630595 1.0888392
7.9057446 -5.3630595 1.1888392
7.9057446 -5.3630595 1.2888392
7.9057446 -5.3630595 1.3888392
7.9057446 -5.2630596 0.18883914
7.9057446 -5.2630596 0.28883913
7.9057446 -5.2630596 0.38883913
7.9057446 -5.2630596 0.48883912
7.9057446 -5.2630596 0.58883911
7.9057446 -5.2630596 0.68883914
7.9057446 -5.2630596 0.78883916
7.9057446 -5.2630596 0.88883919
7.9057446 -5.2630596 0.98883921
7.9057446 -5.2630596 1.0888392
7.9057446 -5.2630596 1.1888392
7.9057446 -5.2630596 1.2888392
7.9057446 -5.2630596 1.3888392
7.9057446 -5.1630597 0.18883914
7.9057446 -5.1630597 0.28883913
7.9057446 -5.1630597 0.38883913
7.9057446 -5.1630597 0.48883912
7.9057446 -5.1630597 0.58883911
7.9057446 -5.1630597 0.68883914
7.9057446 -5.1630597 0.78883916
7.9057446 -5.1630597 0.88883919
7.9057446 -5.1630597 0.98883921
7.9057446 -5.1630597 1.0888392
7.9057446 -5.1630597 1.1888392
7.9057446 -5.1630597 1.2888392
7.9057446 -5.1630597 1.3888392
7.9057446 -5.0630598 0.18883914
7.9057446 -5.0630598 0.28883913
7.9057446 -5.0630598 0.38883913
7.9057446 -5.0630598 0.48883912
7.9057446 -5.0630598 0.58883911
7.9057446 -5.0630598 0.68883914
7.9057446 -5.0630598 0.78883916
7.9057446 -5.0630598 0.88883919
7.9057446 -5.0630598 0.98883921
7.9057446 -5.0630598 1.0888392
7.9057446 -5.0630598 1.1888392
7.9057446 -5.0630598 1.2888392
7.9057446 -5.0630598 1.3888392
7.9057446 -4.9630599 0.18883914
7.9057446 -4.9630599 0.28883913
7.9057446 -4.9630599 0.38883913
7.9057446 -4.9630599 0.48883912
7.9057446 -4.9630599 0.58883911
7.9057446 -4.9630599 0.68883914
7.9057446 -4.9630599 0.78883916
7.9057446 -4.9630599 0.88883919
7.9057446 -4.9630599 0.98883921
7.9057446 -4.9630599 1.0888392
7.9057446 -4.9630599 1.1888392
7.9057446 -4.9630599 1.2888392
7.9057446 -4.9630599 1.3888392
7.9057446 -4.86306 0.18883914
7.9057446 -4.86306 0.28883913
7.9057446 -4.86306 0.38883913
7.9057446 -4.86306 0.48883912
7.9057446 -4.86306 0.58883911
7.9057446 -4.86306 0.68883914
7.9057446 -4.86306 0.78883916
7.9057446 -4.86306 0.88883919
7.9057446 -4.86306 0.98883921
7.9057446 -4.86306 1.0888392
7.9057446 -4.86306 1.1888392
7.9057446 -4.86306 1.2888392
7.9057446 -4.86306 1.3888392
7.9057446 -4.7630601 0.18883914
7.9057446 -4.7630601 0.28883913
7.9057446 -4.7630601 0.38883913
7.9057446 -4.7630601 0.48883912
7.9057446 -4.7630601 0.58883911
7.9057446 -4.7630601 0.68883914
7.9057446 -4.7630601 0.78883916
7.9057446 -4.7630601 0.88883919
7.9057446 -4.7630601 0.98883921
7.9057446 -4.7630601 1.0888392
7.9057446 -4.7630601 1.1888392
7.9057446 -4.7630601 1.2888392
7.9057446 -4.7630601 1.3888392
26.217819 -14.141617 2.0932691
26.217819 -14.141617 2.0932691
26.217819 -14.141617 2.0932691
26.217819 -14.141617 2.0932691
26.217819 -14.141617 2.0932691
26.217819 -14.141617 2.0932691
26.217819 -14.141617 2.0932691
26.217819 -14.141617 2.0932691
26.217819 -14.141617 2.0932691
26.217819 -14.141617 2.0932691
26.217819 -14.141617 2.0932691
26.217819 -14.141617 2.0932691
26.217819 -14.141617 2.0932691
26.217819 -14.141617 2.0932691
26.217819 -14.141617 2.0932691
26.217819 -14.141617 2.0932691
26.217819 -14.141617 2.0932691
26.217819 -14.141617 2.0932691
26.217819 -14.141617 2.0932691
26.217819 -14.141617 2.0932691
26.217819 -14.141617 2.0932691
26.217819 -14.141617 2.0932691
26.217819 -14.141617 2.0932691
26.217819 -14.141617 2.0932691
26.217819 -14.141617 2.0932691
26.217819 -14.141617 2.0932691
26.217819 -14.141617 2.0932691
26.217819 -14.141617 2.0932691
26.217819 -14.141617 2.0932691
26.217819 -14.141617 2.0932691
26.217819 -14.141617 2.0932691
26.217819 -14.141617 2.0932691
26.217819 -14.141617 2.0932691
26.217819 -14.141617 2.0932691
26.217819 -14.141617 2.0932691
26.217819 -14.141617 2.0932691
26.217819 -14.141617 2.0932691
26.217819 -14.141617 2.0932691
26.217819 -14.141617 2.0932691
26.217819 -14.141617 2.0932691
26.217819 -14.141617 2.0932691
26.217819 -14.141617 2.0932691
26.217819 -14.141617 2.0932691
26.217819 -14.141617 2.0932691
26.217819 -14.141617 2.0932691
26.217819 -14.141617 2.0932691
26.217819 -14.141617 2.0932691
26.217819 -14.141617 2.0932691
26.217819 -14.141617 2.0932691
26.217819 -14.141617 2.0932691
26.217819 -14.141617 2.0932691
26.217819 -14.141617 2.0932691
26.217819 -14.141617 2.0932691
26.217819 -14.141617 2.0932691
26.217819 -14.141617 2.0932691
26.217819 -14.141617 2.0932691
26.217819 -14.141617 2.0932691
26.217819 -14.141617 2.0932691
26.217819 -14.141617 2.0932691
26.217819 -14.141617 2.0932691
26.217819 -14.141617 2.0932691
26.217819 -14.141617 2.0932691
26.217819 -14.141617 2.0932691
26.261251 -14.141617 2.0910957
26.261034 -14.13728 2.0910957
26.260386 -14.132988 2.0910957
26.259312 -14.128781 2.0910957
26.257822 -14.124703 2.0910957
26.255934 -14.120794 2.0910957
26.253666 -14.117093 2.0910957
26.251038 -14.113637 2.0910957
26.248079 -14.11046 2.0910957
26.244818 -14.107595 2.0910957
26.241285 -14.10507 2.0910957
26.23752 -14.10291 2.0910957
26.233557 -14.101136 2.0910957
26.229437 -14.099768 2.0910957
26.225201 -14.098817 2.0910957
26.220892 -14.098293 2.0910957
26.216551 -14.098203 2.0910957
26.212223 -14.098547 2.0910957
26.207951 -14.09932 2.0910957
26.203777 -14.100517 2.0910957
26.199745 -14.102124 2.0910957
26.195892 -14.104126 2.0910957
26.192259 -14.106502 2.0910957
26.188881 -14.109229 2.0910957
26.185793 -14.11228 2.0910957
26.183023 -14.115623 2.0910957
26.180603 -14.119227 2.0910957
26.178553 -14.123055 2.0910957
26.176897 -14.127068 2.0910957
26.175648 -14.131226 2.0910957
26.174822 -14.135488 2.0910957
26.174425 -14.139811 2.0910957
26.174461 -14.144152 2.0910957
26.174931 -14.148468 2.0910957
26.175829 -14.152716 2.0910957
26.177147 -14.156852 2.0910957
26.178871 -14.160836 2.0910957
26.180984 -14.164629 2.0910957
26.183466 -14.168191 2.0910957
26.186291 -14.171488 2.0910957
26.18943 -14.174486 2.0910957
26.192854 -14.177156 2.0910957
26.196526 -14.179471 2.0910957
26.200411 -14.181408 2.0910957
26.204472 -14.182947 2.0910957
26.208664 -14.184073 2.0910957
26.212948 -14.184775 2.0910957
26.217281 -14.185046 2.0910957
26.221619 -14.184882 2.0910957
26.22592 -14.184287 2.0910957
26.230139 -14.183265 2.0910957
26.234236 -14.181828 2.0910957
26.238169 -14.179987 2.0910957
26.241898 -14.177764 2.0910957
26.245386 -14.175179 2.0910957
26.248598 -14.17226 2.0910957
26.251503 -14.169034 2.0910957
26.254072 -14.165534 2.0910957
26.256279 -14.161796 2.0910957
26.258102 -14.157855 2.0910957
26.259521 -14.153752 2.0910957
26.260525 -14.149529 2.0910957
26.261101 -14.145226 2.0910957
26.304251 -14.141617 2.0845971
26.303818 -14.132988 2.0845971
26.302526 -14.124446 2.0845971
26.30039 -14.116075 2.0845971
26.297426 -14.107959 2.0845971
26.293669 -14.10018 2.0845971
26.289154 -14.092814 2.0845971
26.283924 -14.085937 2.0845971
26.278036 -14.079616 2.0845971
26.271545 -14.073914 2.0845971
26.264519 -14.068888 2.0845971
26.257023 -14.06459 2.0845971
26.249138 -14.06106 2.0845971
26.24094 -14.058336 2.0845971
26.23251 -14.056444 2.0845971
26.223932 -14.055403 2.0845971
26.215296 -14.055223 2.0845971
26.206682 -14.055906 2.0845971
26.198181 -14.057446 2.0845971
26.189877 -14.059828 2.0845971
26.181852 -14.063025 2.0845971
26.174185 -14.067009 2.0845971
26.166954 -14.071738 2.0845971
26.160233 -14.077165 2.0845971
26.154085 -14.083236 2.0845971
26.148577 -14.08989 2.0845971
26.143759 -14.097062 2.0845971
26.139679 -14.104678 2.0845971
26.136383 -14.112663 2.0845971
26.1339 -14.120938 2.0845971
26.132254 -14.129419 2.0845971
26.131464 -14.138023 2.0845971
26.131536 -14.146662 2.0845971
26.132471 -14.155251 2.0845971
26.134258 -14.163703 2.0845971
26.136881 -14.171935 2.0845971
26.140312 -14.179864 2.0845971
26.144518 -14.18741 2.0845971
26.149456 -14.1945 2.0845971
26.155077 -14.20106 2.0845971
26.161324 -14.207027 2.0845971
26.168137 -14.212341 2.0845971
26.175446 -14.216948 2.0845971
26.183178 -14.220801 2.0845971
26.191256 -14.223865 2.0845971
26.1996 -14.226106 2.0845971
26.208126 -14.227502 2.0845971
26.216749 -14.228041 2.0845971
26.225382 -14.227715 2.0845971
26.23394 -14.226531 2.0845971
26.242336 -14.224497 2.0845971
26.250488 -14.221636 2.0845971
26.258312 -14.217975 2.0845971
26.265734 -14.213551 2.0845971
26.272676 -14.208407 2.0845971
26.27907 -14.202598 2.0845971
26.284851 -14.196177 2.0845971
26.289965 -14.189213 2.0845971
26.294355 -14.181773 2.0845971
26.297981 -14.173931 2.0845971
26.300808 -14.165767 2.0845971
26.302803 -14.157362 2.0845971
26.303951 -14.148799 2.0845971
26.346384 -14.141617 2.0738385
26.345741 -14.128781 2.0738385
26.343822 -14.116075 2.0738385
26.340643 -14.103623 2.0738385
26.336235 -14.091551 2.0738385
26.330647 -14.079979 2.0738385
26.323929 -14.069023 2.0738385
26.316151 -14.058793 2.0738385
26.307392 -14.04939 2.0738385
26.297737 -14.040908 2.0738385
26.287283 -14.033433 2.0738385
26.276136 -14.027039 2.0738385
26.264406 -14.021789 2.0738385
26.252211 -14.017736 2.0738385
26.239672 -14.014922 2.0738385
26.226913 -14.013373 2.0738385
26.214066 -14.013106 2.0738385
26.201254 -14.014123 2.0738385
26.188608 -14.016414 2.0738385
26.176256 -14.019956 2.0738385
26.164318 -14.024713 2.0738385
26.152914 -14.030638 2.0738385
26.142159 -14.037672 2.0738385
26.13216 -14.045745 2.0738385
26.123016 -14.054775 2.0738385
26.11482 -14.064674 2.0738385
26.107653 -14.075341 2.0738385
26.101587 -14.086671 2.0738385
26.096682 -14.098549 2.0738385
26.092987 -14.110858 2.0738385
26.09054 -14.123473 2.0738385
26.089365 -14.136271 2.0738385
26.089474 -14.149121 2.0738385
26.090864 -14.161898 2.0738385
26.093523 -14.17447 2.0738385
26.097424 -14.186715 2.0738385
26.102528 -14.198509 2.0738385
26.108784 -14.209735 2.0738385
26.116129 -14.220281 2.0738385
26.124489 -14.23004 2.0738385
26.133783 -14.238915 2.0738385
26.143917 -14.246819 2.0738385
26.154789 -14.253671 2.0738385
26.16629 -14.259404 2.0738385
26.178307 -14.26396 2.0738385
26.190718 -14.267293 2.0738385
26.2034 -14.269371 2.0738385
26.216227 -14.270172 2.0738385
26.229069 -14.269689 2.0738385
26.241798 -14.267926 2.0738385
26.254288 -14.264901 2.0738385
26.266415 -14.260645 2.0738385
26.278053 -14.255198 2.0738385
26.289093 -14.248618 2.0738385
26.299417 -14.240968 2.0738385
26.308929 -14.232325 2.0738385
26.31753 -14.222776 2.0738385
26.325134 -14.212417 2.0738385
26.331667 -14.201349 2.0738385
26.337061 -14.189685 2.0738385
26.341263 -14.177541 2.0738385
26.344233 -14.165037 2.0738385
26.34594 -14.1523 2.0738385
26.387234 -14.141617 2.0589271
26.386389 -14.124703 2.0589271
26.383858 -14.107959 2.0589271
26.379667 -14.091551 2.0589271
26.373861 -14.075644 2.0589271
26.366495 -14.060394 2.0589271
26.357643 -14.045958 2.0589271
26.347395 -14.032476 2.0589271
26.335852 -14.020085 2.0589271
26.32313 -14.008909 2.0589271
26.309355 -13.999059 2.0589271
26.294666 -13.990633 2.0589271
26.279207 -13.983715 2.0589271
26.263138 -13.978375 2.0589271
26.246614 -13.974667 2.0589271
26.229803 -13.972626 2.0589271
26.212872 -13.972274 2.0589271
26.195992 -13.973614 2.0589271
26.179327 -13.976632 2.0589271
26.16305 -13.981299 2.0589271
26.147318 -13.987568 2.0589271
26.13229 -13.995376 2.0589271
26.118118 -14.004645 2.0589271
26.104942 -14.015283 2.0589271
26.092894 -14.027183 2.0589271
26.082092 -14.040226 2.0589271
26.072649 -14.054283 2.0589271
26.064655 -14.069212 2.0589271
26.058193 -14.084865 2.0589271
26.053324 -14.101084 2.0589271
26.050098 -14.117709 2.0589271
26.04855 -14.134572 2.0589271
26.048693 -14.151506 2.0589271
26.050526 -14.168342 2.0589271
26.054029 -14.184909 2.0589271
26.05917 -14.201045 2.0589271
26.065895 -14.216586 2.0589271
26.074139 -14.231379 2.0589271
26.083817 -14.245275 2.0589271
26.094835 -14.258135 2.0589271
26.107082 -14.269831 2.0589271
26.120436 -14.280246 2.0589271
26.134762 -14.289275 2.0589271
26.149918 -14.296829 2.0589271
26.165752 -14.302833 2.0589271
26.182106 -14.307225 2.0589271
26.198818 -14.309963 2.0589271
26.215719 -14.311019 2.0589271
26.232643 -14.310383 2.0589271
26.249416 -14.30806 2.0589271
26.265875 -14.304073 2.0589271
26.281855 -14.298464 2.0589271
26.297194 -14.291287 2.0589271
26.311739 -14.282616 2.0589271
26.325346 -14.272535 2.0589271
26.337879 -14.261147 2.0589271
26.349213 -14.248564 2.0589271
26.359232 -14.234912 2.0589271
26.36784 -14.220328 2.0589271
26.374949 -14.204958 2.0589271
26.380487 -14.188954 2.0589271
26.384399 -14.172479 2.0589271
26.386648 -14.155694 2.0589271
26.426392 -14.141617 2.0400119
26.42535 -14.120794 2.0400119
26.422234 -14.10018 2.0400119
26.417076 -14.079979 2.0400119
26.409927 -14.060394 2.0400119
26.40086 -14.041622 2.0400119
26.389961 -14.023848 2.0400119
26.377344 -14.007251 2.0400119
26.363132 -13.991996 2.0400119
26.347469 -13.978236 2.0400119
26.330511 -13.966109 2.0400119
26.312428 -13.955735 2.0400119
26.293398 -13.947219 2.0400119
26.273613 -13.940645 2.0400119
26.253269 -13.936079 2.0400119
26.232573 -13.933566 2.0400119
26.211729 -13.933133 2.0400119
26.190947 -13.934783 2.0400119
26.170431 -13.938498 2.0400119
26.150391 -13.944244 2.0400119
26.131021 -13.951962 2.0400119
26.112522 -13.961575 2.0400119
26.095074 -13.972986 2.0400119
26.078852 -13.986083 2.0400119
26.064018 -14.000733 2.0400119
26.050722 -14.016791 2.0400119
26.039095 -14.034098 2.0400119
26.029255 -14.052477 2.0400119
26.021297 -14.071747 2.0400119
26.015305 -14.091716 2.0400119
26.011333 -14.112183 2.0400119
26.009426 -14.132944 2.0400119
26.009602 -14.153791 2.0400119
26.011858 -14.174518 2.0400119
26.016171 -14.194916 2.0400119
26.022499 -14.214781 2.0400119
26.030779 -14.233914 2.0400119
26.040928 -14.252126 2.0400119
26.052845 -14.269234 2.0400119
26.06641 -14.285066 2.0400119
26.081486 -14.299465 2.0400119
26.097927 -14.312287 2.0400119
26.115564 -14.323403 2.0400119
26.134224 -14.332704 2.0400119
26.153717 -14.340095 2.0400119
26.173853 -14.345503 2.0400119
26.194427 -14.348874 2.0400119
26.215235 -14.350174 2.0400119
26.236069 -14.34939 2.0400119
26.25672 -14.34653 2.0400119
26.276983 -14.341622 2.0400119
26.296654 -14.334717 2.0400119
26.315538 -14.325882 2.0400119
26.333447 -14.315206 2.0400119
26.350199 -14.302794 2.0400119
26.365627 -14.288774 2.0400119
26.379581 -14.273282 2.0400119
26.391918 -14.256475 2.0400119
26.402514 -14.238521 2.0400119
26.411266 -14.219598 2.0400119
26.418085 -14.199896 2.0400119
26.422903 -14.179611 2.0400119
26.425671 -14.158948 2.0400119
26.463465 -14.141617 2.0172818
26.462238 -14.117093 2.0172818
26.458569 -14.092814 2.0172818
26.452494 -14.069023 2.0172818
26.444075 -14.045958 2.0172818
26.433393 -14.023848 2.0172818
26.420559 -14.002914 2.0172818
26.405701 -13.983367 2.0172818
26.388962 -13.965401 2.0172818
26.370516 -13.949196 2.0172818
26.350542 -13.934913 2.0172818
26.329243 -13.922695 2.0172818
26.306831 -13.912665 2.0172818
26.283529 -13.904922 2.0172818
26.259571 -13.899545 2.0172818
26.235195 -13.896586 2.0172818
26.210646 -13.896075 2.0172818
26.186169 -13.898018 2.0172818
26.162008 -13.902395 2.0172818
26.138405 -13.909162 2.0172818
26.115595 -13.918251 2.0172818
26.093805 -13.929573 2.0172818
26.073256 -13.943013 2.0172818
26.054152 -13.958437 2.0172818
26.036682 -13.975692 2.0172818
26.021021 -13.994604 2.0172818
26.007328 -14.014986 2.0172818
25.995737 -14.036633 2.0172818
25.986366 -14.059328 2.0172818
25.979307 -14.082846 2.0172818
25.974632 -14.106951 2.0172818
25.972385 -14.131402 2.0172818
25.972591 -14.155956 2.0172818
25.975248 -14.180367 2.0172818
25.98033 -14.20439 2.0172818
25.987782 -14.227785 2.0172818
25.997534 -14.25032 2.0172818
26.009487 -14.271769 2.0172818
26.023521 -14.291917 2.0172818
26.039497 -14.310564 2.0172818
26.057255 -14.327522 2.0172818
26.076616 -14.342624 2.0172818
26.097387 -14.355716 2.0172818
26.119364 -14.36667 2.0172818
26.142324 -14.375374 2.0172818
26.166039 -14.381743 2.0172818
26.190269 -14.385714 2.0172818
26.214775 -14.387244 2.0172818
26.239313 -14.386321 2.0172818
26.263636 -14.382953 2.0172818
26.287498 -14.377173 2.0172818
26.310667 -14.36904 2.0172818
26.332909 -14.358634 2.0172818
26.353998 -14.346061 2.0172818
26.373728 -14.331444 2.0172818
26.391901 -14.314931 2.0172818
26.408333 -14.296685 2.0172818
26.422863 -14.276892 2.0172818
26.435343 -14.255745 2.0172818
26.44565 -14.233459 2.0172818
26.453682 -14.210255 2.0172818
26.459354 -14.186365 2.0172818
26.462616 -14.162028 2.0172818
26.498085 -14.141617 1.9909644
26.496685 -14.113637 1.9909644
26.492498 -14.085937 1.9909644
26.485567 -14.058793 1.9909644
26.47596 -14.032476 1.9909644
26.463776 -14.007251 1.9909644
26.449133 -13.983367 1.9909644
26.432178 -13.961065 1.9909644
26.413082 -13.940567 1.9909644
26.392035 -13.922077 1.9909644
26.369247 -13.905782 1.9909644
26.344946 -13.891843 1.9909644
26.319376 -13.880399 1.9909644
26.292789 -13.871565 1.9909644
26.265455 -13.86543 1.9909644
26.237644 -13.862054 1.9909644
26.209635 -13.861471 1.9909644
26.181709 -13.863688 1.9909644
26.154142 -13.868681 1.9909644
26.127213 -13.876402 1.9909644
26.101187 -13.886772 1.9909644
26.076328 -13.89969 1.9909644
26.052883 -13.915024 1.9909644
26.031086 -13.932622 1.9909644
26.011154 -13.952308 1.9909644
25.993286 -13.973886 1.9909644
25.977663 -13.99714 1.9909644
25.964439 -14.021837 1.9909644
25.953747 -14.047731 1.9909644
25.945694 -14.074563 1.9909644
25.940359 -14.102066 1.9909644
25.937796 -14.129963 1.9909644
25.938032 -14.157977 1.9909644
25.941063 -14.185827 1.9909644
25.946859 -14.213236 1.9909644
25.955362 -14.239929 1.9909644
25.96649 -14.265639 1.9909644
25.980125 -14.290112 1.9909644
25.996138 -14.313099 1.9909644
26.014366 -14.334373 1.9909644
26.034626 -14.353722 1.9909644
26.056715 -14.370951 1.9909644
26.080416 -14.385889 1.9909644
26.105488 -14.398386 1.9909644
26.131683 -14.408318 1.9909644
26.158739 -14.415585 1.9909644
26.186386 -14.420114 1.9909644
26.214346 -14.421861 1.9909644
26.242342 -14.420807 1.9909644
26.270092 -14.416965 1.9909644
26.297319 -14.41037 1.9909644
26.323753 -14.401091 1.9909644
26.349127 -14.389218 1.9909644
26.37319 -14.374873 1.9909644
26.3957 -14.358196 1.9909644
26.416433 -14.339355 1.9909644
26.435183 -14.31854 1.9909644
26.451759 -14.295956 1.9909644
26.466 -14.27183 1.9909644
26.477758 -14.246403 1.9909644
26.486921 -14.219928 1.9909644
26.493395 -14.192672 1.9909644
26.497116 -14.164905 1.9909644
26.529903 -14.141617 1.9613222
26.528343 -14.11046 1.9613222
26.523682 -14.079616 1.9613222
26.515965 -14.04939 1.9613222
26.505268 -14.020085 1.9613222
26.491699 -13.991996 1.9613222
26.475393 -13.965401 1.9613222
26.456514 -13.940567 1.9613222
26.435249 -13.917742 1.9613222
26.411814 -13.897153 1.9613222
26.386438 -13.879007 1.9613222
26.359379 -13.863485 1.9613222
26.330906 -13.850742 1.9613222
26.301302 -13.840906 1.9613222
26.270863 -13.834074 1.9613222
26.239895 -13.830315 1.9613222
26.208706 -13.829666 1.9613222
26.177608 -13.832134 1.9613222
26.146914 -13.837695 1.9613222
26.116926 -13.846292 1.9613222
26.087946 -13.85784 1.9613222
26.060265 -13.872223 1.9613222
26.034157 -13.889298 1.9613222
26.009886 -13.908895 1.9613222
25.98769 -13.930816 1.9613222
25.967794 -13.954844 1.9613222
25.950397 -13.980737 1.9613222
25.935673 -14.008239 1.9613222
25.923767 -14.037072 1.9613222
25.914799 -14.066951 1.9613222
25.908859 -14.097575 1.9613222
25.906006 -14.12864 1.9613222
25.906267 -14.159834 1.9613222
25.909643 -14.190846 1.9613222
25.916098 -14.221367 1.9613222
25.925566 -14.25109 1.9613222
25.937956 -14.27972 1.9613222
25.95314 -14.30697 1.9613222
25.97097 -14.332567 1.9613222
25.991266 -14.356257 1.9613222
26.013826 -14.377802 1.9613222
26.038425 -14.396988 1.9613222
26.064816 -14.413621 1.9613222
26.092735 -14.427537 1.9613222
26.121904 -14.438597 1.9613222
26.152033 -14.446688 1.9613222
26.182817 -14.451732 1.9613222
26.213953 -14.453676 1.9613222
26.245125 -14.452504 1.9613222
26.276026 -14.448225 1.9613222
26.306345 -14.440882 1.9613222
26.335779 -14.430549 1.9613222
26.364035 -14.417329 1.9613222
26.390829 -14.401355 1.9613222
26.415895 -14.382785 1.9613222
26.438984 -14.361805 1.9613222
26.45986 -14.338626 1.9613222
26.478319 -14.313478 1.9613222
26.494175 -14.286613 1.9613222
26.507271 -14.258299 1.9613222
26.517473 -14.228819 1.9613222
26.524681 -14.198468 1.9613222
26.528824 -14.167549 1.9613222
26.558603 -14.141617 1.9286516
26.556902 -14.107595 1.9286516
26.551811 -14.073914 1.9286516
26.543383 -14.040908 1.9286516
26.531702 -14.008909 1.9286516
26.516886 -13.978236 1.9286516
26.499081 -13.949196 1.9286516
26.478466 -13.922077 1.9286516
26.455246 -13.897153 1.9286516
26.429653 -13.874671 1.9286516
26.401945 -13.854856 1.9286516
26.372398 -13.837908 1.9286516
26.341305 -13.823993 1.9286516
26.308979 -13.813251 1.9286516
26.275742 -13.805791 1.9286516
26.241926 -13.801686 1.9286516
26.207869 -13.800978 1.9286516
26.17391 -13.803673 1.9286516
26.140392 -13.809745 1.9286516
26.107647 -13.819133 1.9286516
26.076002 -13.831742 1.9286516
26.045776 -13.847448 1.9286516
26.017267 -13.866094 1.9286516
25.990763 -13.887492 1.9286516
25.966528 -13.911429 1.9286516
25.944801 -13.937667 1.9286516
25.925804 -13.965942 1.9286516
25.909725 -13.995973 1.9286516
25.896725 -14.027458 1.9286516
25.886932 -14.060084 1.9286516
25.880445 -14.093525 1.9286516
25.877329 -14.127446 1.9286516
25.877617 -14.16151 1.9286516
25.881302 -14.195374 1.9286516
25.88835 -14.228701 1.9286516
25.898689 -14.261158 1.9286516
25.912218 -14.29242 1.9286516
25.928801 -14.322176 1.9286516
25.948269 -14.350128 1.9286516
25.970432 -14.375997 1.9286516
25.995068 -14.399523 1.9286516
26.021927 -14.420472 1.9286516
26.050745 -14.438636 1.9286516
26.081232 -14.453832 1.9286516
26.113085 -14.465908 1.9286516
26.145983 -14.474744 1.9286516
26.179598 -14.480251 1.9286516
26.213596 -14.482375 1.9286516
26.247637 -14.481094 1.9286516
26.28138 -14.476421 1.9286516
26.314486 -14.468404 1.9286516
26.346628 -14.45712 1.9286516
26.377481 -14.442685 1.9286516
26.40674 -14.425241 1.9286516
26.434113 -14.404963 1.9286516
26.459322 -14.382054 1.9286516
26.482119 -14.356744 1.9286516
26.502275 -14.329283 1.9286516
26.51959 -14.299947 1.9286516
26.53389 -14.26903 1.9286516
26.545031 -14.236838 1.9286516
26.552902 -14.203696 1.9286516
26.557425 -14.169933 1.9286516
26.583899 -14.141617 1.8932788
26.582069 -14.10507 1.8932788
26.576601 -14.068888 1.8932788
26.567549 -14.033433 1.8932788
26.555 -13.999059 1.8932788
26.539083 -13.966109 1.8932788
26.519958 -13.934913 1.8932788
26.497812 -13.905782 1.8932788
26.47287 -13.879007 1.8932788
26.445377 -13.854856 1.8932788
26.415613 -13.833571 1.8932788
26.383871 -13.815364 1.8932788
26.350471 -13.800416 1.8932788
26.315744 -13.788877 1.8932788
26.280041 -13.780864 1.8932788
26.243715 -13.776454 1.8932788
26.20713 -13.775693 1.8932788
26.170652 -13.778588 1.8932788
26.134645 -13.785111 1.8932788
26.09947 -13.795196 1.8932788
26.065475 -13.808742 1.8932788
26.033005 -13.825613 1.8932788
26.00238 -13.845643 1.8932788
25.973909 -13.868629 1.8932788
25.947874 -13.894343 1.8932788
25.924538 -13.922528 1.8932788
25.904129 -13.952902 1.8932788
25.886856 -13.985162 1.8932788
25.87289 -14.018984 1.8932788
25.862371 -14.054032 1.8932788
25.855404 -14.089955 1.8932788
25.852057 -14.126394 1.8932788
25.852364 -14.162986 1.8932788
25.856323 -14.199364 1.8932788
25.863894 -14.235165 1.8932788
25.875002 -14.270031 1.8932788
25.889534 -14.303615 1.8932788
25.907347 -14.335579 1.8932788
25.928261 -14.365605 1.8932788
25.95207 -14.393394 1.8932788
25.978533 -14.418667 1.8932788
26.007387 -14.441171 1.8932788
26.038343 -14.460683 1.8932788
26.071095 -14.477006 1.8932788
26.10531 -14.489979 1.8932788
26.14065 -14.499471 1.8932788
26.176762 -14.505387 1.8932788
26.213284 -14.507668 1.8932788
26.249849 -14.506292 1.8932788
26.286097 -14.501273 1.8932788
26.321661 -14.49266 1.8932788
26.356188 -14.480539 1.8932788
26.389334 -14.465033 1.8932788
26.420763 -14.446294 1.8932788
26.450167 -14.424511 1.8932788
26.477247 -14.399901 1.8932788
26.501738 -14.372711 1.8932788
26.52339 -14.343212 1.8932788
26.54199 -14.311699 1.8932788
26.55735 -14.278486 1.8932788
26.569317 -14.243906 1.8932788
26.577774 -14.208304 1.8932788
26.582632 -14.172035 1.8932788
26.605537 -14.141617 1.8555576
26.6036 -14.10291 1.8555576
26.597809 -14.06459 1.8555576
26.588221 -14.027039 1.8555576
26.57493 -13.990633 1.8555576
26.558073 -13.955735 1.8555576
26.537817 -13.922695 1.8555576
26.514362 -13.891843 1.8555576
26.487944 -13.863485 1.8555576
26.458828 -13.837908 1.8555576
26.427303 -13.815364 1.8555576
26.393686 -13.796081 1.8555576
26.358311 -13.780249 1.8555576
26.321533 -13.768028 1.8555576
26.283718 -13.759541 1.8555576
26.245245 -13.75487 1.8555576
26.206497 -13.754065 1.8555576
26.167864 -13.757132 1.8555576
26.129728 -13.764039 1.8555576
26.092474 -13.77472 1.8555576
26.056471 -13.789066 1.8555576
26.022081 -13.806935 1.8555576
25.989647 -13.828149 1.8555576
25.959492 -13.852494 1.8555576
25.931919 -13.879728 1.8555576
25.907202 -13.909578 1.8555576
25.885588 -13.941748 1.8555576
25.867294 -13.975914 1.8555576
25.852503 -14.011736 1.8555576
25.841362 -14.048856 1.8555576
25.833982 -14.086902 1.8555576
25.830437 -14.125495 1.8555576
25.830763 -14.164249 1.8555576
25.834955 -14.202777 1.8555576
25.842976 -14.240694 1.8555576
25.854738 -14.277621 1.8555576
25.870131 -14.31319 1.8555576
25.888996 -14.347043 1.8555576
25.911146 -14.378844 1.8555576
25.936361 -14.408276 1.8555576
25.96439 -14.435041 1.8555576
25.994949 -14.458877 1.8555576
26.027737 -14.479542 1.8555576
26.062422 -14.49683 1.8555576
26.09866 -14.51057 1.8555576
26.136089 -14.520622 1.8555576
26.174335 -14.526888 1.8555576
26.213015 -14.529305 1.8555576
26.251743 -14.527847 1.8555576
26.290133 -14.522531 1.8555576
26.327799 -14.513409 1.8555576
26.364367 -14.500571 1.8555576
26.399471 -14.484148 1.8555576
26.432758 -14.464302 1.8555576
26.4639 -14.441232 1.8555576
26.492582 -14.415168 1.8555576
26.518518 -14.386371 1.8555576
26.541451 -14.355128 1.8555576
26.56115 -14.321753 1.8555576
26.577417 -14.286576 1.8555576
26.590094 -14.249952 1.8555576
26.599049 -14.212246 1.8555576
26.604197 -14.173834 1.8555576
26.623301 -14.141617 1.8158646
26.621275 -14.101136 1.8158646
26.615217 -14.06106 1.8158646
26.60519 -14.021789 1.8158646
26.591291 -13.983715 1.8158646
26.573662 -13.947219 1.8158646
26.552477 -13.912665 1.8158646
26.527948 -13.880399 1.8158646
26.50032 -13.850742 1.8158646
26.46987 -13.823993 1.8158646
26.436901 -13.800416 1.8158646
26.401743 -13.780249 1.8158646
26.364748 -13.763693 1.8158646
26.326284 -13.750912 1.8158646
26.286737 -13.742036 1.8158646
26.246502 -13.737151 1.8158646
26.205978 -13.736309 1.8158646
26.165575 -13.739515 1.8158646
26.125692 -13.74674 1.8158646
26.086731 -13.75791 1.8158646
26.04908 -13.772914 1.8158646
26.013113 -13.791602 1.8158646
25.979193 -13.813787 1.8158646
25.947657 -13.839248 1.8158646
25.918819 -13.867729 1.8158646
25.892971 -13.898948 1.8158646
25.870367 -13.93259 1.8158646
25.851234 -13.968322 1.8158646
25.835766 -14.005785 1.8158646
25.824114 -14.044605 1.8158646
25.816397 -14.084395 1.8158646
25.812689 -14.124756 1.8158646
25.81303 -14.165286 1.8158646
25.817415 -14.20558 1.8158646
25.8258 -14.245234 1.8158646
25.838104 -14.283853 1.8158646
25.8542 -14.32105 1.8158646
25.87393 -14.356455 1.8158646
25.897097 -14.389713 1.8158646
25.923468 -14.420492 1.8158646
25.952778 -14.448485 1.8158646
25.984739 -14.473413 1.8158646
26.019028 -14.495024 1.8158646
26.055302 -14.513104 1.8158646
26.093201 -14.527473 1.8158646
26.132345 -14.537987 1.8158646
26.172342 -14.544539 1.8158646
26.212795 -14.547067 1.8158646
26.253298 -14.545543 1.8158646
26.293446 -14.539983 1.8158646
26.332838 -14.530443 1.8158646
26.37108 -14.517017 1.8158646
26.407793 -14.499842 1.8158646
26.442606 -14.479086 1.8158646
26.475174 -14.454959 1.8158646
26.505171 -14.427701 1.8158646
26.532295 -14.397585 1.8158646
26.556278 -14.36491 1.8158646
26.57688 -14.330006 1.8158646
26.593893 -14.293218 1.8158646
26.607149 -14.254916 1.8158646
26.616516 -14.215482 1.8158646
26.621899 -14.175309 1.8158646
26.637012 -14.141617 1.7745965
26.634918 -14.099768 1.7745965
26.628656 -14.058336 1.7745965
26.61829 -14.017736 1.7745965
26.603922 -13.978375 1.7745965
26.585695 -13.940645 1.7745965
26.563795 -13.904922 1.7745965
26.538437 -13.871565 1.7745965
26.509874 -13.840906 1.7745965
26.478394 -13.813251 1.7745965
26.444311 -13.788877 1.7745965
26.407963 -13.768028 1.7745965
26.369717 -13.750912 1.7745965
26.329952 -13.7377 1.7745965
26.289068 -13.728522 1.7745965
26.247471 -13.723474 1.7745965
26.20558 -13.722602 1.7745965
26.163809 -13.725918 1.7745965
26.122578 -13.733386 1.7745965
26.082298 -13.744934 1.7745965
26.043373 -13.760446 1.7745965
26.006191 -13.779765 1.7745965
25.971123 -13.8027 1.7745965
25.93852 -13.829022 1.7745965
25.908709 -13.858467 1.7745965
25.881985 -13.890741 1.7745965
25.858618 -13.925522 1.7745965
25.838839 -13.962461 1.7745965
25.822845 -14.001192 1.7745965
25.810801 -14.041325 1.7745965
25.80282 -14.08246 1.7745965
25.798988 -14.124187 1.7745965
25.799341 -14.166086 1.7745965
25.803875 -14.207743 1.7745965
25.812544 -14.248737 1.7745965
25.825262 -14.288662 1.7745965
25.841904 -14.327118 1.7745965
25.862301 -14.36372 1.7745965
25.88625 -14.398103 1.7745965
25.913513 -14.429923 1.7745965
25.943815 -14.458863 1.7745965
25.976856 -14.484632 1.7745965
26.012304 -14.506975 1.7745965
26.049807 -14.525667 1.7745965
26.088987 -14.540522 1.7745965
26.129454 -14.551391 1.7745965
26.170805 -14.558166 1.7745965
26.212626 -14.560778 1.7745965
26.254498 -14.559202 1.7745965
26.296003 -14.553454 1.7745965
26.336727 -14.543591 1.7745965
26.376265 -14.529713 1.7745965
26.414217 -14.511955 1.7745965
26.450209 -14.490499 1.7745965
26.483877 -14.465555 1.7745965
26.514889 -14.437375 1.7745965
26.542931 -14.40624 1.7745965
26.567724 -14.372461 1.7745965
26.589022 -14.336376 1.7745965
26.606611 -14.298345 1.7745965
26.620316 -14.258747 1.7745965
26.629999 -14.217979 1.7745965
26.635563 -14.176449 1.7745965
26.646536 -14.141617 1.7321655
26.644394 -14.098817 1.7321655
26.637991 -14.056444 1.7321655
26.627388 -14.014922 1.7321655
26.612694 -13.974667 1.7321655
26.594053 -13.936079 1.7321655
26.571655 -13.899545 1.7321655
26.545721 -13.86543 1.7321655
26.51651 -13.834074 1.7321655
26.484314 -13.805791 1.7321655
26.449455 -13.780864 1.7321655
26.412283 -13.759541 1.7321655
26.373169 -13.742036 1.7321655
26.3325 -13.728523 1.7321655
26.290688 -13.719137 1.7321655
26.248146 -13.713973 1.7321655
26.205301 -13.713082 1.7321655
26.16258 -13.716473 1.7321655
26.120413 -13.724112 1.7321655
26.07922 -13.735922 1.7321655
26.03941 -13.751785 1.7321655
26.001383 -13.771544 1.7321655
25.965519 -13.795 1.7321655
25.932175 -13.82192 1.7321655
25.901686 -13.852034 1.7321655
25.874355 -13.885041 1.7321655
25.850456 -13.920612 1.7321655
25.830229 -13.958391 1.7321655
25.813871 -13.998001 1.7321655
25.801552 -14.039046 1.7321655
25.793392 -14.081116 1.7321655
25.789473 -14.12379 1.7321655
25.789833 -14.166642 1.7321655
25.79447 -14.209245 1.7321655
25.803335 -14.251171 1.7321655
25.816343 -14.292004 1.7321655
25.833363 -14.331332 1.7321655
25.854223 -14.368766 1.7321655
25.878717 -14.403931 1.7321655
25.906599 -14.436474 1.7321655
25.93759 -14.46607 1.7321655
25.971382 -14.492426 1.7321655
26.007635 -14.515276 1.7321655
26.045988 -14.534392 1.7321655
26.08606 -14.549584 1.7321655
26.127447 -14.5607 1.7321655
26.169737 -14.567629 1.7321655
26.212507 -14.570301 1.7321655
26.255331 -14.56869 1.7321655
26.297779 -14.562812 1.7321655
26.33943 -14.552725 1.7321655
26.379864 -14.53853 1.7321655
26.41868 -14.52037 1.7321655
26.455488 -14.498425 1.7321655
26.489922 -14.472915 1.7321655
26.521637 -14.444095 1.7321655
26.550318 -14.412252 1.7321655
26.575674 -14.377707 1.7321655
26.597456 -14.340801 1.7321655
26.615444 -14.301906 1.7321655
26.629461 -14.261409 1.7321655
26.639362 -14.219714 1.7321655
26.645054 -14.17724 1.7321655
26.651777 -14.141617 1.6889957
26.649609 -14.098293 1.6889957
26.643127 -14.055403 1.6889957
26.632395 -14.013373 1.6889957
26.617521 -13.972626 1.6889957
26.598652 -13.933566 1.6889957
26.575979 -13.896586 1.6889957
26.549728 -13.862054 1.6889957
26.520161 -13.830315 1.6889957
26.487572 -13.801686 1.6889957
26.452288 -13.776454 1.6889957
26.414661 -13.75487 1.6889957
26.375067 -13.737151 1.6889957
26.333902 -13.723474 1.6889957
26.291578 -13.713973 1.6889957
26.248516 -13.708746 1.6889957
26.205149 -13.707845 1.6889957
26.161905 -13.711276 1.6889957
26.119223 -13.719008 1.6889957
26.077526 -13.730963 1.6889957
26.03723 -13.747021 1.6889957
25.998737 -13.76702 1.6889957
25.962435 -13.790764 1.6889957
25.928684 -13.818012 1.6889957
25.897821 -13.848495 1.6889957
25.870157 -13.881906 1.6889957
25.845966 -13.917911 1.6889957
25.825491 -13.956152 1.6889957
25.808935 -13.996246 1.6889957
25.796465 -14.037792 1.6889957
25.788204 -14.080377 1.6889957
25.784237 -14.123572 1.6889957
25.784601 -14.166948 1.6889957
25.789295 -14.210072 1.6889957
25.798269 -14.25251 1.6889957
25.811436 -14.293841 1.6889957
25.828665 -14.333652 1.6889957
25.849779 -14.371543 1.6889957
25.874573 -14.407137 1.6889957
25.902796 -14.440078 1.6889957
25.934166 -14.470037 1.6889957
25.96837 -14.496714 1.6889957
26.005066 -14.519843 1.6889957
26.043888 -14.539193 1.6889957
26.08445 -14.554571 1.6889957
26.126343 -14.565824 1.6889957
26.169149 -14.572836 1.6889957
26.212442 -14.575541 1.6889957
26.255789 -14.57391 1.6889957
26.298758 -14.56796 1.6889957
26.340916 -14.55775 1.6889957
26.381844 -14.543382 1.6889957
26.421135 -14.525 1.6889957
26.458393 -14.502787 1.6889957
26.493248 -14.476965 1.6889957
26.525351 -14.447792 1.6889957
26.55438 -14.415561 1.6889957
26.580048 -14.380592 1.6889957
26.602097 -14.343236 1.6889957
26.620304 -14.303864 1.6889957
26.634491 -14.262873 1.6889957
26.644516 -14.220669 1.6889957
26.650276 -14.177675 1.6889957
26.652681 -14.141617 1.6455185
26.650509 -14.098203 1.6455185
26.644012 -14.055223 1.6455185
26.633259 -14.013106 1.6455185
26.618353 -13.972274 1.6455185
26.599447 -13.933133 1.6455185
26.576727 -13.896075 1.6455185
26.550421 -13.861471 1.6455185
26.52079 -13.829666 1.6455185
26.488134 -13.800978 1.6455185
26.452776 -13.775693 1.6455185
26.415071 -13.754065 1.6455185
26.375395 -13.736309 1.6455185
26.334145 -13.722602 1.6455185
26.291731 -13.713082 1.6455185
26.248581 -13.707845 1.6455185
26.205122 -13.706941 1.6455185
26.161789 -13.71038 1.6455185
26.119017 -13.718128 1.6455185
26.077232 -13.730107 1.6455185
26.036852 -13.746198 1.6455185
25.998281 -13.76624 1.6455185
25.961903 -13.790032 1.6455185
25.928082 -13.817338 1.6455185
25.897156 -13.847883 1.6455185
25.869432 -13.881364 1.6455185
25.845192 -13.917445 1.6455185
25.824673 -13.955766 1.6455185
25.808083 -13.995943 1.6455185
25.795588 -14.037576 1.6455185
25.78731 -14.080249 1.6455185
25.783333 -14.123534 1.6455185
25.783699 -14.167001 1.6455185
25.788403 -14.210214 1.6455185
25.797396 -14.252742 1.6455185
25.810591 -14.294159 1.6455185
25.827852 -14.334051 1.6455185
25.849012 -14.372022 1.6455185
25.873857 -14.40769 1.6455185
25.902138 -14.4407 1.6455185
25.933575 -14.470721 1.6455185
25.96785 -14.497454 1.6455185
26.004623 -14.520632 1.6455185
26.043526 -14.540022 1.6455185
26.084171 -14.555432 1.6455185
26.126152 -14.566708 1.6455185
26.169048 -14.573735 1.6455185
26.212431 -14.576446 1.6455185
26.255869 -14.574811 1.6455185
26.298925 -14.568848 1.6455185
26.341171 -14.558617 1.6455185
26.382187 -14.544219 1.6455185
26.421558 -14.525798 1.6455185
26.458895 -14.503539 1.6455185
26.493822 -14.477663 1.6455185
26.525991 -14.44843 1.6455185
26.555082 -14.416132 1.6455185
26.580803 -14.38109 1.6455185
26.602898 -14.343656 1.6455185
26.621143 -14.304203 1.6455185
26.635361 -14.263125 1.6455185
26.645405 -14.220834 1.6455185
26.651176 -14.177751 1.6455185
26.64924 -14.141617 1.6021683
26.647085 -14.098547 1.6021683
26.64064 -14.055906 1.6021683
26.629971 -14.014123 1.6021683
26.615185 -13.973614 1.6021683
26.596426 -13.934783 1.6021683
26.573887 -13.898018 1.6021683
26.547789 -13.863688 1.6021683
26.518393 -13.832134 1.6021683
26.485994 -13.803673 1.6021683
26.450916 -13.778588 1.6021683
26.413509 -13.757132 1.6021683
26.374147 -13.739515 1.6021683
26.333223 -13.725918 1.6021683
26.291147 -13.716473 1.6021683
26.248337 -13.711276 1.6021683
26.205221 -13.71038 1.6021683
26.162233 -13.713792 1.6021683
26.119799 -13.721478 1.6021683
26.078344 -13.733363 1.6021683
26.038284 -13.749327 1.6021683
26.000017 -13.76921 1.6021683
25.963928 -13.792814 1.6021683
25.930374 -13.819904 1.6021683
25.899693 -13.850207 1.6021683
25.872189 -13.883423 1.6021683
25.848139 -13.919218 1.6021683
25.827784 -13.957236 1.6021683
25.811325 -13.997096 1.6021683
25.798927 -14.0384 1.6021683
25.790716 -14.080734 1.6021683
25.786772 -14.123677 1.6021683
25.787134 -14.1668 1.6021683
25.7918 -14.209671 1.6021683
25.800722 -14.251863 1.6021683
25.813812 -14.292952 1.6021683
25.830938 -14.332529 1.6021683
25.851931 -14.370199 1.6021683
25.876579 -14.405584 1.6021683
25.904636 -14.438334 1.6021683
25.935823 -14.468117 1.6021683
25.969828 -14.494638 1.6021683
26.00631 -14.517632 1.6021683
26.044905 -14.53687 1.6021683
26.085228 -14.552157 1.6021683
26.126877 -14.563344 1.6021683
26.169434 -14.570316 1.6021683
26.212473 -14.573005 1.6021683
26.255568 -14.571383 1.6021683
26.298285 -14.565468 1.6021683
26.340197 -14.555317 1.6021683
26.380886 -14.541033 1.6021683
26.419947 -14.522758 1.6021683
26.456987 -14.500675 1.6021683
26.491638 -14.475004 1.6021683
26.523554 -14.446003 1.6021683
26.552414 -14.41396 1.6021683
26.57793 -14.379195 1.6021683
26.59985 -14.342057 1.6021683
26.617952 -14.302917 1.6021683
26.632057 -14.262164 1.6021683
26.642021 -14.220207 1.6021683
26.647749 -14.177464 1.6021683
26.641489 -14.141617 1.559378
26.639372 -14.09932 1.559378
26.633043 -14.057446 1.559378
26.622566 -14.016414 1.559378
26.608046 -13.976632 1.559378
26.589624 -13.938498 1.559378
26.56749 -13.902395 1.559378
26.541861 -13.868681 1.559378
26.512993 -13.837695 1.559378
26.481176 -13.809745 1.559378
26.44673 -13.785111 1.559378
26.409994 -13.764039 1.559378
26.37134 -13.74674 1.559378
26.33115 -13.733386 1.559378
26.289829 -13.724112 1.559378
26.247787 -13.719008 1.559378
26.205448 -13.718128 1.559378
26.163231 -13.721478 1.559378
26.121561 -13.729027 1.559378
26.080851 -13.740698 1.559378
26.04151 -13.756375 1.559378
26.003931 -13.775901 1.559378
25.968489 -13.799082 1.559378
25.935537 -13.825684 1.559378
25.905407 -13.855444 1.559378
25.878399 -13.888062 1.559378
25.854782 -13.923214 1.559378
25.834791 -13.960548 1.559378
25.818628 -13.999692 1.559378
25.806454 -14.040254 1.559378
25.798389 -14.081828 1.559378
25.794516 -14.124 1.559378
25.794872 -14.166348 1.559378
25.799454 -14.208448 1.559378
25.808216 -14.249882 1.559378
25.821072 -14.290233 1.559378
25.837889 -14.329099 1.559378
25.858505 -14.366092 1.559378
25.88271 -14.400842 1.559378
25.910263 -14.433002 1.559378
25.940889 -14.462251 1.559378
25.974283 -14.488296 1.559378
26.010111 -14.510877 1.559378
26.048012 -14.529768 1.559378
26.08761 -14.544782 1.559378
26.128511 -14.555767 1.559378
26.170303 -14.562613 1.559378
26.21257 -14.565254 1.559378
26.254889 -14.563662 1.559378
26.296839 -14.557853 1.559378
26.337997 -14.547884 1.559378
26.377956 -14.533857 1.559378
26.416315 -14.51591 1.559378
26.45269 -14.494224 1.559378
26.486719 -14.469014 1.559378
26.518061 -14.440534 1.559378
26.546402 -14.409066 1.559378
26.571461 -14.374927 1.559378
26.592987 -14.338456 1.559378
26.610764 -14.300018 1.559378
26.624615 -14.259998 1.559378
26.634399 -14.218795 1.559378
26.640024 -14.176821 1.559378
26.629505 -14.141617 1.5175755
26.627447 -14.100517 1.5175755
26.621298 -14.059828 1.5175755
26.611116 -14.019956 1.5175755
26.597006 -13.981299 1.5175755
26.579107 -13.944244 1.5175755
26.557598 -13.909162 1.5175755
26.532694 -13.876402 1.5175755
26.504642 -13.846292 1.5175755
26.473726 -13.819133 1.5175755
26.440254 -13.795196 1.5175755
26.404558 -13.77472 1.5175755
26.366997 -13.75791 1.5175755
26.327944 -13.744934 1.5175755
26.287792 -13.735922 1.5175755
26.246941 -13.730963 1.5175755
26.205797 -13.730107 1.5175755
