# .PCD v0.7 - Point Cloud Data file format
VERSION 0.7
FIELDS x y z
SIZE 4 4 4
TYPE F F F
COUNT 1 1 1
WIDTH 1526
HEIGHT 1
VIEWPOINT 0 0 0 1 0 0 0
POINTS 1526
DATA ascii
9.6543379 -14.634919 1.6946754
9.6614285 -14.582002 1.6946754
9.7239151 -14.537619 1.6381831
9.7209444 -14.47824 1.6381831
9.71206 -14.419456 1.6381831
9.6973505 -14.361852 1.6381831
9.6769648 -14.306004 1.6381831
9.6511049 -14.252469 1.6381831
9.6200294 -14.201785 1.6381831
9.5840502 -14.154455 1.6381831
9.5435247 -14.110954 1.6381831
9.4988594 -14.071717 1.6381831
9.4504995 -14.037134 1.6381831
9.3989296 -14.007553 1.6381831
9.3446636 -13.983267 1.6381831
9.2882433 -13.96452 1.6381831
9.2302341 -13.9515 1.6381831
9.1712151 -13.944336 1.6381831
9.1117754 -13.9431 1.6381831
9.0525093 -13.947803 1.6381831
8.994009 -13.958401 1.6381831
8.9368591 -13.974785 1.6381831
8.8816299 -13.996794 1.6381831
8.8288736 -14.024205 1.6381831
8.7791185 -14.056747 1.6381831
8.7328596 -14.094093 1.6381831
8.6905613 -14.135872 1.6381831
8.6526442 -14.181664 1.6381831
8.6194887 -14.231012 1.6381831
8.5914249 -14.283424 1.6381831
8.5687351 -14.338376 1.6381831
8.5516434 -14.395319 1.6381831
8.5403223 -14.453684 1.6381831
8.5348845 -14.512887 1.6381831
8.5353842 -14.572337 1.6381831
8.5418167 -14.631441 1.6381831
8.5541172 -14.689607 1.6381831
8.5721636 -14.746254 1.6381831
8.5957747 -14.800817 1.6381831
8.6247158 -14.85275 1.6381831
8.6586962 -14.901534 1.6381831
8.6973772 -14.946683 1.6381831
8.7403727 -14.987743 1.6381831
8.7872524 -15.024307 1.6381831
8.8375483 -15.056007 1.6381831
8.8907576 -15.082529 1.6381831
8.9463482 -15.103605 1.6381831
9.0037661 -15.119026 1.6381831
9.0624361 -15.128639 1.6381831
9.1217728 -15.132346 1.6381831
9.1811838 -15.130111 1.6381831
9.2400742 -15.121955 1.6381831
9.2978563 -15.107961 1.6381831
9.3539524 -15.088268 1.6381831
9.4078026 -15.063074 1.6381831
9.458868 -15.032629 1.6381831
9.5066395 -14.997239 1.6381831
9.5506392 -14.957256 1.6381831
9.5904274 -14.91308 1.6381831
9.6256065 -14.865153 1.6381831
9.6558247 -14.813953 1.6381831
9.6807814 -14.759992 1.6381831
9.7002258 -14.70381 1.6381831
9.7139635 -14.645966 1.6381831
9.721859 -14.58704 1.6381831
9.7786131 -14.537619 1.5759192
9.7753687 -14.47278 1.5759192
9.765667 -14.408588 1.5759192
9.7496052 -14.345687 1.5759192
9.7273445 -14.284703 1.5759192
9.6991062 -14.226246 1.5759192
9.6651735 -14.1709 1.5759192
9.625885 -14.119218 1.5759192
9.5816326 -14.071717 1.5759192
9.5328598 -14.028871 1.5759192
9.4800529 -13.991108 1.5759192
9.4237404 -13.958806 1.5759192
9.3644829 -13.932287 1.5759192
9.3028755 -13.911816 1.5759192
9.2395315 -13.897598 1.5759192
9.1750841 -13.889775 1.5759192
9.110178 -13.888425 1.5759192
9.0454617 -13.893561 1.5759192
8.9815817 -13.905133 1.5759192
8.9191751 -13.923025 1.5759192
8.8588676 -13.947057 1.5759192
8.80126 -13.97699 1.5759192
8.7469292 -14.012525 1.5759192
8.6964159 -14.053305 1.5759192
8.6502275 -14.098926 1.5759192
8.6088238 -14.148929 1.5759192
8.5726194 -14.202816 1.5759192
8.541975 -14.260048 1.5759192
8.5171976 -14.320053 1.5759192
8.4985342 -14.382233 1.5759192
8.4861717 -14.445965 1.5759192
8.4802341 -14.510612 1.5759192
8.4807796 -14.57553 1.5759192
8.4878035 -14.640069 1.5759192
8.501236 -14.703585 1.5759192
8.5209417 -14.765441 1.5759192
8.5467243 -14.825022 1.5759192
8.5783262 -14.881731 1.5759192
8.6154318 -14.935001 1.5759192
8.657671 -14.984302 1.5759192
8.7046194 -15.029139 1.5759192
8.7558107 -15.069065 1.5759192
8.8107319 -15.103681 1.5759192
8.8688345 -15.132641 1.5759192
8.9295378 -15.155656 1.5759192
8.9922361 -15.172495 1.5759192
9.0563021 -15.182991 1.5759192
9.1210957 -15.187039 1.5759192
9.1859694 -15.184598 1.5759192
9.2502756 -15.175693 1.5759192
9.3133717 -15.160412 1.5759192
9.3746262 -15.138908 1.5759192
9.4334288 -15.111397 1.5759192
9.4891911 -15.078153 1.5759192
9.5413551 -15.039508 1.5759192
9.5894012 -14.995848 1.5759192
9.6328487 -14.947609 1.5759192
9.6712627 -14.895274 1.5759192
9.7042608 -14.839366 1.5759192
9.7315121 -14.780442 1.5759192
9.7527447 -14.719092 1.5759192
9.767746 -14.65593 1.5759192
9.7763672 -14.591585 1.5759192
9.8268213 -14.537619 1.5085055
9.8233356 -14.467967 1.5085055
9.8129139 -14.399012 1.5085055
9.795661 -14.331441 1.5085055
9.7717476 -14.26593 1.5085055
9.7414131 -14.203134 1.5085055
9.7049618 -14.14368 1.5085055
9.6627569 -14.088161 1.5085055
9.6152201 -14.037134 1.5085055
9.5628271 -13.991108 1.5085055
9.5060997 -13.950542 1.5085055
9.4456072 -13.915842 1.5085055
9.3819523 -13.887355 1.5085055
9.3157711 -13.865364 1.5085055
9.2477255 -13.850091 1.5085055
9.1784945 -13.841687 1.5085055
9.1087704 -13.840238 1.5085055
9.0392504 -13.845756 1.5085055
8.9706287 -13.858186 1.5085055
8.9035902 -13.877405 1.5085055
8.8388062 -13.903221 1.5085055
8.7769222 -13.935376 1.5085055
8.7185583 -13.973548 1.5085055
8.6642962 -14.017356 1.5085055
8.6146793 -14.066362 1.5085055
8.5702019 -14.120077 1.5085055
8.5313101 -14.177964 1.5085055
8.4983912 -14.239445 1.5085055
8.4717741 -14.303905 1.5085055
8.451726 -14.370699 1.5085055
8.438446 -14.439161 1.5085055
8.4320679 -14.508608 1.5085055
8.4326534 -14.578344 1.5085055
8.4401989 -14.647674 1.5085055
8.454628 -14.715903 1.5085055
8.4757967 -14.782351 1.5085055
8.5034933 -14.846354 1.5085055
8.5374413 -14.907273 1.5085055
8.577301 -14.964498 1.5085055
8.6226749 -15.017458 1.5085055
8.6731091 -15.065623 1.5085055
8.7280998 -15.108513 1.5085055
8.787097 -15.145698 1.5085055
8.8495131 -15.176807 1.5085055
8.9147224 -15.20153 1.5085055
8.9820738 -15.219621 1.5085055
9.0508947 -15.230896 1.5085055
9.1204977 -15.235244 1.5085055
9.1901875 -15.232621 1.5085055
9.2592669 -15.223055 1.5085055
9.3270464 -15.20664 1.5085055
9.392848 -15.18354 1.5085055
9.4560156 -15.153987 1.5085055
9.5159168 -15.118275 1.5085055
9.5719528 -15.076761 1.5085055
9.6235647 -15.02986 1.5085055
9.6702375 -14.978042 1.5085055
9.711503 -14.921822 1.5085055
9.7469501 -14.861764 1.5085055
9.7762241 -14.798467 1.5085055
9.7990322 -14.732563 1.5085055
9.8151474 -14.664712 1.5085055
9.8244085 -14.595591 1.5085055
9.8680592 -14.537619 1.4366158
9.8643675 -14.46385 1.4366158
9.8533297 -14.390819 1.4366158
9.8350563 -14.319254 1.4366158
9.8097296 -14.249871 1.4366158
9.7776022 -14.183364 1.4366158
9.7389965 -14.120396 1.4366158
9.6942968 -14.061596 1.4366158
9.6439505 -14.007553 1.4366158
9.58846 -13.958806 1.4366158
9.5283804 -13.915842 1.4366158
9.4643116 -13.879091 1.4366158
9.3968945 -13.84892 1.4366158
9.3268013 -13.82563 1.4366158
9.254734 -13.809454 1.4366158
9.1814117 -13.800553 1.4366158
9.1075668 -13.799018 1.4366158
9.0339375 -13.804862 1.4366158
8.9612589 -13.818027 1.4366158
8.8902588 -13.838383 1.4366158
8.8216448 -13.865725 1.4366158
8.7561035 -13.899779 1.4366158
8.6942902 -13.940207 1.4366158
8.6368208 -13.986605 1.4366158
8.5842705 -14.038508 1.4366158
8.5371647 -14.095398 1.4366158
8.4959745 -14.156706 1.4366158
8.4611092 -14.221821 1.4366158
8.4329195 -14.290091 1.4366158
8.4116859 -14.360833 1.4366158
8.3976212 -14.433342 1.4366158
8.3908663 -14.506893 1.4366158
8.3914871 -14.580751 1.4366158
8.399478 -14.654179 1.4366158
8.4147596 -14.726441 1.4366158
8.4371796 -14.796817 1.4366158
8.4665136 -14.864603 1.4366158
8.5024672 -14.929122 1.4366158
8.5446835 -14.989729 1.4366158
8.5927391 -15.045819 1.4366158
8.6461544 -15.096831 1.4366158
8.7043953 -15.142256 1.4366158
8.76688 -15.18164 1.4366158
8.8329849 -15.214588 1.4366158
8.9020481 -15.240772 1.4366158
8.973381 -15.259931 1.4366158
9.0462704 -15.271873 1.4366158
9.1199875 -15.276478 1.4366158
9.1937952 -15.273701 1.4366158
9.2669582 -15.263569 1.4366158
9.3387432 -15.246183 1.4366158
9.4084349 -15.221719 1.4366158
9.4753351 -15.190418 1.4366158
9.5387774 -15.152596 1.4366158
9.5981255 -15.108628 1.4366158
9.6527882 -15.058955 1.4366158
9.702219 -15.004073 1.4366158
9.745924 -14.94453 1.4366158
9.7834663 -14.880922 1.4366158
9.8144703 -14.813885 1.4366158
9.8386269 -14.744085 1.4366158
9.8556948 -14.672224 1.4366158
9.8655033 -14.599017 1.4366158
9.9019127 -14.537619 1.3609684
9.8980522 -14.46047 1.3609684
9.8865089 -14.384093 1.3609684
9.8673983 -14.30925 1.3609684
9.8409109 -14.236688 1.3609684
9.807312 -14.167132 1.3609684
9.7669373 -14.101279 1.3609684
9.72019 -14.039786 1.3609684
9.6675367 -13.983267 1.3609684
9.6095047 -13.932287 1.3609684
9.5466719 -13.887355 1.3609684
9.4796686 -13.84892 1.3609684
9.4091616 -13.817367 1.3609684
9.3358574 -13.79301 1.3609684
9.2604885 -13.776093 1.3609684
9.1838064 -13.766784 1.3609684
9.1065779 -13.765178 1.3609684
9.0295753 -13.77129 1.3609684
8.9535675 -13.785058 1.3609684
8.8793144 -13.806346 1.3609684
8.8075571 -13.834941 1.3609684
8.7390127 -13.870556 1.3609684
8.674367 -13.912837 1.3609684
8.6142645 -13.96136 1.3609684
8.5593071 -14.01564 1.3609684
8.5100431 -14.075137 1.3609684
8.4669647 -14.139255 1.3609684
8.4305029 -14.207352 1.3609684
8.401022 -14.278749 1.3609684
8.3788157 -14.352734 1.3609684
8.3641062 -14.428565 1.3609684
8.3570404 -14.505486 1.3609684
8.3576899 -14.582727 1.3609684
8.3660479 -14.659519 1.3609684
8.3820295 -14.735092 1.3609684
8.4054766 -14.808693 1.3609684
8.4361544 -14.879584 1.3609684
8.4737558 -14.94706 1.3609684
8.5179062 -15.010444 1.3609684
8.5681629 -15.069103 1.3609684
8.6240253 -15.122453 1.3609684
8.6849346 -15.169958 1.3609684
8.7502823 -15.211145 1.3609684
8.819416 -15.245604 1.3609684
8.8916435 -15.272988 1.3609684
8.9662447 -15.293024 1.3609684
9.0424728 -15.305513 1.3609684
9.1195679 -15.310329 1.3609684
9.1967573 -15.307425 1.3609684
9.2732725 -15.296829 1.3609684
9.3483467 -15.278647 1.3609684
9.4212313 -15.253061 1.3609684
9.4911966 -15.220327 1.3609684
9.5575447 -15.180771 1.3609684
9.6196127 -15.134789 1.3609684
9.6767797 -15.082841 1.3609684
9.7284756 -15.025444 1.3609684
9.7741823 -14.963174 1.3609684
9.8134451 -14.896651 1.3609684
9.84587 -14.826542 1.3609684
9.8711329 -14.753545 1.3609684
9.8889828 -14.678391 1.3609684
9.8992405 -14.60183 1.3609684
9.9280462 -14.537619 1.2823192
9.9240551 -14.457861 1.2823192
9.9121208 -14.378901 1.2823192
9.8923645 -14.301527 1.2823192
9.8649817 -14.226511 1.2823192
9.830246 -14.154604 1.2823192
9.7885065 -14.086524 1.2823192
9.7401781 -14.022951 1.2823192
9.6857443 -13.96452 1.2823192
9.6257486 -13.911816 1.2823192
9.560792 -13.865364 1.2823192
9.4915218 -13.82563 1.2823192
9.4186316 -13.79301 1.2823192
9.3428488 -13.767829 1.2823192
9.2649298 -13.75034 1.2823192
9.1856546 -13.740717 1.2823192
9.1058149 -13.739056 1.2823192
9.0262079 -13.745375 1.2823192
8.9476299 -13.759608 1.2823192
8.8708658 -13.781616 1.2823192
8.7966814 -13.811178 1.2823192
8.7258196 -13.847998 1.2823192
8.658987 -13.891708 1.2823192
8.5968523 -13.941873 1.2823192
8.5400362 -13.997989 1.2823192
8.4891062 -14.059497 1.2823192
8.4445715 -14.125783 1.2823192
8.4068766 -14.196183 1.2823192
8.3763981 -14.269995 1.2823192
8.3534412 -14.346481 1.2823192
8.3382349 -14.424877 1.2823192
8.3309307 -14.504399 1.2823192
8.3316021 -14.584253 1.2823192
8.3402414 -14.663641 1.2823192
8.3567638 -14.741771 1.2823192
8.3810043 -14.81786 1.2823192
8.4127188 -14.891149 1.2823192
8.4515924 -14.960906 1.2823192
8.4972353 -15.026433 1.2823192
8.5491924 -15.087076 1.2823192
8.6069441 -15.14223 1.2823192
8.6699133 -15.191342 1.2823192
8.7374706 -15.233923 1.2823192
8.8089418 -15.269547 1.2823192
8.8836117 -15.297856 1.2823192
8.9607353 -15.31857 1.2823192
9.0395422 -15.331482 1.2823192
9.1192436 -15.336461 1.2823192
9.1990442 -15.333458 1.2823192
9.2781467 -15.322504 1.2823192
9.3557596 -15.303707 1.2823192
9.4311085 -15.277256 1.2823192
9.5034409 -15.243415 1.2823192
9.5720329 -15.202521 1.2823192
9.636199 -15.154984 1.2823192
9.6953001 -15.101278 1.2823192
9.7487431 -15.041942 1.2823192
9.7959967 -14.977565 1.2823192
9.836586 -14.908793 1.2823192
9.8701077 -14.836312 1.2823192
9.896225 -14.760847 1.2823192
9.9146786 -14.683151 1.2823192
9.9252834 -14.604002 1.2823192
9.9461966 -14.537619 1.2014539
9.9421148 -14.456049 1.2014539
9.9299097 -14.375295 1.2014539
9.9097042 -14.296163 1.2014539
9.8816996 -14.219442 1.2014539
9.8461752 -14.145902 1.2014539
9.8034868 -14.076275 1.2014539
9.7540598 -14.011258 1.2014539
9.69839 -13.9515 1.2014539
9.6370316 -13.897598 1.2014539
9.5705986 -13.850091 1.2014539
9.4997549 -13.809454 1.2014539
9.4252081 -13.776093 1.2014539
9.3477039 -13.75034 1.2014539
9.2680149 -13.732453 1.2014539
9.1869383 -13.722611 1.2014539
9.1052847 -13.720913 1.2014539
9.0238695 -13.727375 1.2014539
8.9435062 -13.741933 1.2014539
8.8649979 -13.764441 1.2014539
8.7891283 -13.794674 1.2014539
8.7166557 -13.83233 1.2014539
8.6483059 -13.877033 1.2014539
8.5847597 -13.928337 1.2014539
8.5266523 -13.985728 1.2014539
8.4745655 -14.048635 1.2014539
8.429019 -14.116426 1.2014539
8.3904667 -14.188426 1.2014539
8.3592968 -14.263915 1.2014539
8.3358173 -14.342138 1.2014539
8.3202658 -14.422316 1.2014539
8.3127956 -14.503644 1.2014539
8.3134823 -14.585313 1.2014539
8.3223181 -14.666505 1.2014539
8.3392162 -14.746408 1.2014539
8.364007 -14.824226 1.2014539
8.3964424 -14.89918 1.2014539
8.4361982 -14.970522 1.2014539
8.4828787 -15.037539 1.2014539
8.5360165 -15.09956 1.2014539
8.5950794 -15.155966 1.2014539
8.6594791 -15.206195 1.2014539
8.7285719 -15.249743 1.2014539
8.8016672 -15.286175 1.2014539
8.8780336 -15.315128 1.2014539
8.9569101 -15.336313 1.2014539
9.0375061 -15.349518 1.2014539
9.1190186 -15.354609 1.2014539
9.2006321 -15.351539 1.2014539
9.2815313 -15.340336 1.2014539
9.3609085 -15.321112 1.2014539
9.4379692 -15.29406 1.2014539
9.5119438 -15.25945 1.2014539
9.5820951 -15.217628 1.2014539
9.6477194 -15.16901 1.2014539
9.7081623 -15.114085 1.2014539
9.7628202 -15.053399 1.2014539
9.8111467 -14.98756 1.2014539
9.8526592 -14.917226 1.2014539
9.8869419 -14.843099 1.2014539
9.9136534 -14.765919 1.2014539
9.9325256 -14.686458 1.2014539
9.9433708 -14.60551 1.2014539
9.9561834 -14.537619 1.1191806
9.9520521 -14.455052 1.1191806
9.9396982 -14.373311 1.1191806
9.9192448 -14.293211 1.1191806
9.8908978 -14.215553 1.1191806
9.8549395 -14.141114 1.1191806
9.8117294 -14.070636 1.1191806
9.7616987 -14.004825 1.1191806
9.705348 -13.944336 1.1191806
9.64324 -13.889775 1.1191806
9.5759945 -13.841687 1.1191806
9.5042849 -13.800553 1.1191806
9.4288273 -13.766784 1.1191806
9.3503752 -13.740717 1.1191806
9.2697124 -13.722611 1.1191806
9.187645 -13.712649 1.1191806
9.1049938 -13.710931 1.1191806
9.022583 -13.717471 1.1191806
8.9412374 -13.732207 1.1191806
8.8617687 -13.75499 1.1191806
8.7849722 -13.785593 1.1191806
8.7116146 -13.823709 1.1191806
8.6424284 -13.868959 1.1191806
8.578105 -13.92089 1.1191806
8.5192881 -13.978983 1.1191806
8.4665642 -14.042658 1.1191806
8.4204607 -14.111278 1.1191806
8.3814383 -14.184157 1.1191806
8.3498869 -14.26057 1.1191806
8.3261204 -14.339749 1.1191806
8.310379 -14.420906 1.1191806
8.3028173 -14.503229 1.1191806
8.3035126 -14.585896 1.1191806
8.3124561 -14.66808 1.1191806
8.3295612 -14.74896 1.1191806
8.3546543 -14.82773 1.1191806
8.3874865 -14.9036 1.1191806
8.4277287 -14.975814 1.1191806
8.4749794 -15.043649 1.1191806
8.5287666 -15.106428 1.1191806
8.5885515 -15.163525 1.1191806
8.653739 -15.214367 1.1191806
8.7236757 -15.258447 1.1191806
8.7976646 -15.295324 1.1191806
8.8749647 -15.324632 1.1191806
8.9548044 -15.346076 1.1191806
9.0363865 -15.359442 1.1191806
9.1188955 -15.364596 1.1191806
9.2015066 -15.361487 1.1191806
9.2833939 -15.350147 1.1191806
9.3637409 -15.330688 1.1191806
9.4417439 -15.303306 1.1191806
9.5166235 -15.268272 1.1191806
9.5876312 -15.225939 1.1191806
9.6540585 -15.176728 1.1191806
9.7152405 -15.121131 1.1191806
9.770566 -15.059704 1.1191806
9.8194828 -14.99306 1.1191806
9.8615026 -14.921866 1.1191806
9.896204 -14.846832 1.1191806
9.9232426 -14.768709 1.1191806
9.9423456 -14.688277 1.1191806
9.9533234 -14.606339 1.1191806
9.9579067 -14.537619 1.0363212
9.9537668 -14.454881 1.0363212
9.9413872 -14.372969 1.0363212
9.9208918 -14.292702 1.0363212
9.8924856 -14.214883 1.0363212
9.856452 -14.140287 1.0363212
9.8131514 -14.069663 1.0363212
9.7630167 -14.003714 1.0363212
9.7065487 -13.9431 1.0363212
9.644311 -13.888425 1.0363212
9.5769262 -13.840238 1.0363212
9.5050669 -13.799018 1.0363212
9.4294519 -13.765178 1.0363212
9.3508358 -13.739056 1.0363212
9.2700052 -13.720913 1.0363212
9.187767 -13.710931 1.0363212
9.1049433 -13.709208 1.0363212
9.0223608 -13.715762 1.0363212
8.9408455 -13.730529 1.0363212
8.8612118 -13.753359 1.0363212
8.784255 -13.784025 1.0363212
8.7107439 -13.822222 1.0363212
8.6414137 -13.867566 1.0363212
8.5769567 -13.919605 1.0363212
8.5180168 -13.977818 1.0363212
8.4651833 -14.041626 1.0363212
8.4189844 -14.11039 1.0363212
8.37988 -14.183421 1.0363212
8.3482628 -14.259992 1.0363212
8.3244476 -14.339336 1.0363212
8.3086729 -14.420663 1.0363212
8.301095 -14.503158 1.0363212
8.3017921 -14.585997 1.0363212
8.3107548 -14.668352 1.0363212
8.3278952 -14.749401 1.0363212
8.3530407 -14.828335 1.0363212
8.3859406 -14.904363 1.0363212
8.4262676 -14.976727 1.0363212
8.4736166 -15.044703 1.0363212
8.5275154 -15.107614 1.0363212
8.5874252 -15.164828 1.0363212
8.6527481 -15.215776 1.0363212
8.7228308 -15.259949 1.0363212
8.7969732 -15.296904 1.0363212
8.8744345 -15.326272 1.0363212
8.9544411 -15.34776 1.0363212
9.0361929 -15.361154 1.0363212
9.1188736 -15.36632 1.0363212
9.2016573 -15.363204 1.0363212
9.2837152 -15.351841 1.0363212
9.3642302 -15.332341 1.0363212
9.4423952 -15.304901 1.0363212
9.5174303 -15.269795 1.0363212
9.5885868 -15.227373 1.0363212
9.6551514 -15.17806 1.0363212
9.7164612 -15.122347 1.0363212
9.7719021 -15.060792 1.0363212
9.8209219 -14.994009 1.0363212
9.8630285 -14.922667 1.0363212
9.8978024 -14.847477 1.0363212
9.9248972 -14.769191 1.0363212
9.9440403 -14.688591 1.0363212
9.9550409 -14.606483 1.0363212
9.9513493 -14.537619 0.95370376
9.9472418 -14.455535 0.95370376
9.9349604 -14.374271 0.95370376
9.9146271 -14.29464 0.95370376
9.886446 -14.217436 0.95370376
9.8506975 -14.143432 0.95370376
9.8077393 -14.073365 0.95370376
9.7580013 -14.007938 0.95370376
9.7019796 -13.947803 0.95370376
9.6402349 -13.893561 0.95370376
9.5733833 -13.845756 0.95370376
9.5020924 -13.804862 0.95370376
9.4270754 -13.77129 0.95370376
9.349082 -13.745375 0.95370376
9.2688904 -13.727375 0.95370376
9.1873035 -13.717471 0.95370376
9.105135 -13.715762 0.95370376
9.0232058 -13.722265 0.95370376
8.9423351 -13.736915 0.95370376
8.8633318 -13.759564 0.95370376
8.7869835 -13.789988 0.95370376
8.7140551 -13.827882 0.95370376
8.6452732 -13.872868 0.95370376
8.5813255 -13.924495 0.95370376
8.5228529 -13.982248 0.95370376
8.470437 -14.04555 0.95370376
8.4246025 -14.11377 0.95370376
8.3858089 -14.186224 0.95370376
8.3544407 -14.262189 0.95370376
8.3308144 -14.340906 0.95370376
8.3151646 -14.421588 0.95370376
8.3076468 -14.50343 0.95370376
8.3083382 -14.585613 0.95370376
8.3172302 -14.667317 0.95370376
8.3342342 -14.747725 0.95370376
8.3591814 -14.826035 0.95370376
8.3918209 -14.901461 0.95370376
8.4318285 -14.973252 0.95370376
8.4788027 -15.040691 0.95370376
8.5322752 -15.103104 0.95370376
8.591711 -15.159866 0.95370376
8.656517 -15.210411 0.95370376
8.7260456 -15.254233 0.95370376
8.7996016 -15.290896 0.95370376
8.8764505 -15.320032 0.95370376
8.9558239 -15.341351 0.95370376
9.0369282 -15.354638 0.95370376
9.1189547 -15.359762 0.95370376
9.2010832 -15.356672 0.95370376
9.2824926 -15.345398 0.95370376
9.3623695 -15.326054 0.95370376
9.4399166 -15.298831 0.95370376
9.5143585 -15.264002 0.95370376
9.5849514 -15.221916 0.95370376
9.6509895 -15.172993 0.95370376
9.7118139 -15.117721 0.95370376
9.7668171 -15.056652 0.95370376
9.8154478 -14.990398 0.95370376
9.8572216 -14.919621 0.95370376
9.8917208 -14.845025 0.95370376
9.918601 -14.767359 0.95370376
9.9375925 -14.687397 0.95370376
9.9485064 -14.605938 0.95370376
9.9365768 -14.537619 0.8721537
9.9325438 -14.457009 0.8721537
9.9204826 -14.377206 0.8721537
9.9005146 -14.299006 0.8721537
9.872839 -14.223188 0.8721537
9.8377333 -14.150514 0.8721537
9.7955475 -14.081707 0.8721537
9.7467022 -14.017455 0.8721537
9.6916876 -13.958401 0.8721537
9.631052 -13.905133 0.8721537
9.5654011 -13.858186 0.8721537
9.4953918 -13.818027 0.8721537
9.4217224 -13.785058 0.8721537
9.34513 -13.759608 0.8721537
9.2663803 -13.741933 0.8721537
9.1862583 -13.732207 0.8721537
9.105566 -13.730529 0.8721537
9.0251093 -13.736915 0.8721537
8.9456921 -13.751301 0.8721537
8.8681078 -13.773543 0.8721537
8.7931309 -13.803421 0.8721537
8.7215128 -13.840633 0.8721537
8.6539669 -13.88481 0.8721537
8.5911684 -13.935511 0.8721537
8.5337458 -13.992227 0.8721537
8.4822721 -14.054392 0.8721537
8.4372616 -14.121385 0.8721537
8.3991642 -14.192537 0.8721537
8.3683605 -14.267138 0.8721537
8.3451576 -14.34444 0.8721537
8.3297892 -14.423673 0.8721537
8.3224068 -14.504045 0.8721537
8.3230848 -14.584751 0.8721537
8.3318176 -14.664988 0.8721537
8.3485165 -14.743951 0.8721537
8.3730154 -14.820852 0.8721537
8.4050684 -14.894924 0.8721537
8.4443569 -14.965425 0.8721537
8.4904871 -15.031652 0.8721537
8.5429993 -15.092944 0.8721537
8.601367 -15.148686 0.8721537
8.6650095 -15.198323 0.8721537
8.7332878 -15.241358 0.8721537
8.8055229 -15.277362 0.8721537
8.88099 -15.305974 0.8721537
8.9589376 -15.32691 0.8721537
9.0385857 -15.339959 0.8721537
9.1191378 -15.344991 0.8721537
9.199791 -15.341956 0.8721537
9.2797375 -15.330885 0.8721537
9.3581791 -15.311888 0.8721537
9.4343328 -15.285154 0.8721537
9.5074377 -15.250952 0.8721537
9.5767622 -15.209621 0.8721537
9.641614 -15.161576 0.8721537
9.7013454 -15.107298 0.8721537
9.7553596 -15.047327 0.8721537
9.8031168 -14.982264 0.8721537
9.8441401 -14.912757 0.8721537
9.8780193 -14.839502 0.8721537
9.9044161 -14.763231 0.8721537
9.9230671 -14.684706 0.8721537
9.9337845 -14.604711 0.8721537
9.9137373 -14.537619 0.79248583
9.9098167 -14.45929 0.79248583
9.898097 -14.381743 0.79248583
9.8786945 -14.305756 0.79248583
9.8518019 -14.232083 0.79248583
9.8176889 -14.161464 0.79248583
9.7766962 -14.094604 0.79248583
9.7292337 -14.032169 0.79248583
9.6757746 -13.974785 0.79248583
9.6168547 -13.923025 0.79248583
9.5530605 -13.877405 0.79248583
9.4850311 -13.838383 0.79248583
9.4134464 -13.806346 0.79248583
9.3390207 -13.781616 0.79248583
9.2624979 -13.764441 0.79248583
9.1846428 -13.75499 0.79248583
9.1062326 -13.753359 0.79248583
9.0280523 -13.759564 0.79248583
8.950881 -13.773543 0.79248583
8.8754911 -13.795157 0.79248583
8.8026361 -13.824189 0.79248583
8.7330437 -13.86035 0.79248583
8.667408 -13.903277 0.79248583
8.6063862 -13.952542 0.79248583
8.5505877 -14.007654 0.79248583
8.5005703 -14.068061 0.79248583
8.4568329 -14.133159 0.79248583
8.4198132 -14.202298 0.79248583
8.3898811 -14.274789 0.79248583
8.3673344 -14.349905 0.79248583
8.3524008 -14.426896 0.79248583
8.3452272 -14.504994 0.79248583
8.3458862 -14.583418 0.79248583
8.354372 -14.661385 0.79248583
8.3705978 -14.738113 0.79248583
8.3944044 -14.81284 0.79248583
8.4255505 -14.884817 0.79248583
8.463728 -14.953324 0.79248583
8.5085535 -15.017678 0.79248583
8.5595798 -15.077235 0.79248583
8.6162968 -15.131401 0.79248583
8.6781387 -15.179633 0.79248583
8.7444859 -15.221451 0.79248583
8.8146772 -15.256436 0.79248583
8.88801 -15.28424 0.79248583
8.9637518 -15.304583 0.79248583
9.0411472 -15.317263 0.79248583
9.119421 -15.322152 0.79248583
9.1977921 -15.319203 0.79248583
9.2754774 -15.308446 0.79248583
9.3517008 -15.289986 0.79248583
9.4257002 -15.264009 0.79248583
9.4967365 -15.230773 0.79248583
9.5641003 -15.190612 0.79248583
9.6271172 -15.143927 0.79248583
9.6851597 -15.091183 0.79248583
9.7376461 -15.032908 0.79248583
9.7840519 -14.969686 0.79248583
9.8239155 -14.902145 0.79248583
9.8568363 -14.830962 0.79248583
9.8824863 -14.756849 0.79248583
9.900609 -14.680545 0.79248583
9.9110241 -14.602813 0.79248583
9.8830576 -14.537619 0.7154963
9.8792906 -14.462353 0.7154963
9.8680296 -14.387839 0.7154963
9.8493853 -14.314821 0.7154963
9.8235445 -14.24403 0.7154963
9.7907648 -14.176172 0.7154963
9.7513752 -14.111926 0.7154963
9.7057686 -14.051933 0.7154963
9.6543999 -13.996794 0.7154963
9.5977831 -13.947057 0.7154963
9.5364847 -13.903221 0.7154963
9.4711151 -13.865725 0.7154963
9.4023294 -13.834941 0.7154963
9.3308144 -13.811178 0.7154963
9.2572832 -13.794674 0.7154963
9.1824722 -13.785593 0.7154963
9.1071281 -13.784025 0.7154963
9.0320044 -13.789988 0.7154963
8.9578514 -13.803421 0.7154963
8.8854094 -13.824189 0.7154963
8.815403 -13.852086 0.7154963
8.7485313 -13.886832 0.7154963
8.685463 -13.928082 0.7154963
8.6268272 -13.975421 0.7154963
8.5732107 -14.028377 0.7154963
8.5251493 -14.086422 0.7154963
8.4831219 -14.148974 0.7154963
8.4475498 -14.21541 0.7154963
8.418788 -14.285066 0.7154963
8.3971233 -14.357244 0.7154963
8.3827734 -14.431226 0.7154963
8.3758802 -14.506269 0.7154963
8.3765135 -14.581627 0.7154963
8.3846674 -14.656545 0.7154963
8.400259 -14.730274 0.7154963
8.4231339 -14.802078 0.7154963
8.453063 -14.871241 0.7154963
8.489747 -14.937069 0.7154963
8.5328197 -14.998906 0.7154963
8.581851 -15.056135 0.7154963
8.6363506 -15.108182 0.7154963
8.6957741 -15.15453 0.7154963
8.7595272 -15.194712 0.7154963
8.826973 -15.228329 0.7154963
8.897439 -15.255045 0.7154963
8.9702196 -15.274592 0.7154963
9.0445881 -15.286777 0.7154963
9.1198015 -15.291475 0.7154963
9.1951075 -15.288642 0.7154963
9.2697554 -15.278304 0.7154963
9.3429985 -15.260567 0.7154963
9.4141045 -15.235604 0.7154963
9.4823627 -15.203669 0.7154963
9.5470924 -15.165078 0.7154963
9.607645 -15.120218 0.7154963
9.6634178 -15.069537 0.7154963
9.7138519 -15.013541 0.7154963
9.7584438 -14.95279 0.7154963
9.7967482 -14.887891 0.7154963
9.8283815 -14.819492 0.7154963
9.8530283 -14.748277 0.7154963
9.8704424 -14.674956 0.7154963
9.8804502 -14.600264 0.7154963
9.8448448 -14.537619 0.64195424
9.8412695 -14.466167 0.64195424
9.8305788 -14.395431 0.64195424
9.8128796 -14.326114 0.64195424
9.7883482 -14.258911 0.64195424
9.7572308 -14.194492 0.64195424
9.7198372 -14.133503 0.64195424
9.6765423 -14.07655 0.64195424
9.6277771 -14.024205 0.64195424
9.5740299 -13.97699 0.64195424
9.5158386 -13.935376 0.64195424
9.4537821 -13.899779 0.64195424
9.388483 -13.870556 0.64195424
9.3205919 -13.847998 0.64195424
9.2507887 -13.83233 0.64195424
9.1797695 -13.823709 0.64195424
9.1082439 -13.822222 0.64195424
9.0369282 -13.827882 0.64195424
8.9665337 -13.840633 0.64195424
8.8977633 -13.86035 0.64195424
8.8313055 -13.886832 0.64195424
8.7678232 -13.919818 0.64195424
8.7079515 -13.958976 0.64195424
8.6522875 -14.003916 0.64195424
8.6013889 -14.054188 0.64195424
8.5557623 -14.109291 0.64195424
8.5158653 -14.168673 0.64195424
8.4820967 -14.231742 0.64195424
8.454792 -14.297867 0.64195424
8.434226 -14.366387 0.64195424
8.4206028 -14.436618 0.64195424
8.4140596 -14.507858 0.64195424
8.4146614 -14.579396 0.64195424
8.4224014 -14.650517 0.64195424
8.4372025 -14.72051 0.64195424
8.4589186 -14.788674 0.64195424
8.4873304 -14.854331 0.64195424
8.5221548 -14.916822 0.64195424
8.5630445 -14.975526 0.64195424
8.6095905 -15.029854 0.64195424
8.6613274 -15.079263 0.64195424
8.7177391 -15.12326 0.64195424
8.7782612 -15.161407 0.64195424
8.842289 -15.19332 0.64195424
8.9091825 -15.218682 0.64195424
8.9782743 -15.237239 0.64195424
9.0488739 -15.248805 0.64195424
9.1202745 -15.253266 0.64195424
9.1917648 -15.250576 0.64195424
9.2626286 -15.240763 0.64195424
9.332159 -15.223924 0.64195424
9.3996611 -15.200227 0.64195424
9.4644594 -15.16991 0.64195424
9.5259085 -15.133275 0.64195424
9.5833921 -15.090689 0.64195424
9.6363382 -15.042577 0.64195424
9.6842155 -14.989419 0.64195424
9.7265472 -14.931747 0.64195424
9.7629099 -14.870137 0.64195424
9.7929401 -14.805205 0.64195424
9.8163385 -14.737599 0.64195424
9.8328695 -14.667995 0.64195424
9.84237 -14.597089 0.64195424
9.7994814 -14.537619 0.57259446
9.796133 -14.470696 0.57259446
9.7861195 -14.404443 0.57259446
9.7695417 -14.33952 0.57259446
9.7465658 -14.276576 0.57259446
9.7174206 -14.216241 0.57259446
9.6823969 -14.159117 0.57259446
9.6418457 -14.105775 0.57259446
9.5961723 -14.056747 0.57259446
9.5458317 -14.012525 0.57259446
9.4913282 -13.973548 0.57259446
9.4332056 -13.940207 0.57259446
9.3720455 -13.912837 0.57259446
9.3084574 -13.891708 0.57259446
9.2430782 -13.877033 0.57259446
9.1765604 -13.868959 0.57259446
9.1095686 -13.867566 0.57259446
9.0427732 -13.872868 0.57259446
8.97684 -13.88481 0.57259446
8.9124289 -13.903277 0.57259446
8.8501835 -13.928082 0.57259446
8.7907248 -13.958976 0.57259446
8.7346478 -13.995652 0.57259446
8.6825123 -14.037744 0.57259446
8.6348391 -14.084829 0.57259446
8.5921049 -14.136439 0.57259446
8.5547371 -14.192058 0.57259446
8.5231085 -14.251129 0.57259446
8.4975348 -14.313063 0.57259446
8.4782724 -14.37724 0.57259446
8.4655123 -14.44302 0.57259446
8.459384 -14.509745 0.57259446
8.4599466 -14.576749 0.57259446
8.4671965 -14.643361 0.57259446
8.48106 -14.708917 0.57259446
8.501399 -14.772761 0.57259446
8.5280104 -14.834256 0.57259446
8.5606279 -14.892788 0.57259446
8.5989256 -14.94777 0.57259446
8.6425219 -14.998654 0.57259446
8.690979 -15.044932 0.57259446
8.7438154 -15.086141 0.57259446
8.8005009 -15.121869 0.57259446
8.8604708 -15.15176 0.57259446
8.9231243 -15.175514 0.57259446
8.9878368 -15.192895 0.57259446
9.0539608 -15.203728 0.57259446
9.1208372 -15.207906 0.57259446
9.1877956 -15.205386 0.57259446
9.2541676 -15.196195 0.57259446
9.3192911 -15.180423 0.57259446
9.382514 -15.158229 0.57259446
9.4432058 -15.129833 0.57259446
9.5007601 -15.095521 0.57259446
9.5546007 -15.055634 0.57259446
9.6041899 -15.010571 0.57259446
9.6490335 -14.960783 0.57259446
9.6886816 -14.906766 0.57259446
9.7227402 -14.849061 0.57259446
9.7508669 -14.788244 0.57259446
9.7727814 -14.724924 0.57259446
9.7882652 -14.659732 0.57259446
9.797163 -14.593319 0.57259446
9.7474203 -14.537619 0.50810999
9.7443314 -14.475894 0.50810999
9.735096 -14.414785 0.50810999
9.7198057 -14.354905 0.50810999
9.6986141 -14.29685 0.50810999
9.6717319 -14.2412 0.50810999
9.6394291 -14.188513 0.50810999
9.6020279 -14.139314 0.50810999
9.5599012 -14.094093 0.50810999
9.5134697 -14.053306 0.50810999
9.4631996 -14.017356 0.50810999
9.4095907 -13.986605 0.50810999
9.3531799 -13.96136 0.50810999
9.2945309 -13.941873 0.50810999
9.2342291 -13.928337 0.50810999
9.1728783 -13.92089 0.50810999
9.1110888 -13.919605 0.50810999
9.0494814 -13.924495 0.50810999
8.9886684 -13.935511 0.50810999
8.9292603 -13.952542 0.50810999
8.8718481 -13.975421 0.50810999
8.817008 -14.003916 0.50810999
8.7652855 -14.037744 0.50810999
8.7171993 -14.076566 0.50810999
8.6732292 -14.119995 0.50810999
8.6338139 -14.167597 0.50810999
8.5993481 -14.218896 0.50810999
8.5701752 -14.273379 0.50810999
8.5465879 -14.330503 0.50810999
8.528821 -14.389696 0.50810999
8.5170527 -14.450367 0.50810999
8.5114002 -14.511909 0.50810999
8.51192 -14.573709 0.50810999
8.5186062 -14.635149 0.50810999
8.5313931 -14.695613 0.50810999
8.5501528 -14.754499 0.50810999
8.5746965 -14.811218 0.50810999
8.6047812 -14.865204 0.50810999
8.6401043 -14.915915 0.50810999
8.6803141 -14.962849 0.50810999
8.725009 -15.005532 0.50810999
8.7737417 -15.04354 0.50810999
8.826025 -15.076494 0.50810999
8.8813362 -15.104063 0.50810999
8.9391251 -15.125973 0.50810999
8.9988117 -15.142003 0.50810999
9.0598001 -15.151996 0.50810999
9.1214819 -15.155849 0.50810999
9.1832399 -15.153525 0.50810999
9.2444582 -15.145047 0.50810999
9.3045235 -15.130501 0.50810999
9.3628368 -15.110029 0.50810999
9.4188147 -15.083839 0.50810999
9.471899 -15.052192 0.50810999
9.5215578 -15.015403 0.50810999
9.567296 -14.97384 0.50810999
9.6086569 -14.927918 0.50810999
9.6452255 -14.878097 0.50810999
9.6766386 -14.824873 0.50810999
9.7025814 -14.76878 0.50810999
9.7227936 -14.710377 0.50810999
9.7370749 -14.650248 0.50810999
9.7452822 -14.588993 0.50810999
9.6891813 -14.537619 0.44914508
9.6863832 -14.481709 0.44914508
9.6780176 -14.426356 0.44914508
9.6641684 -14.372116 0.44914508
9.6449728 -14.31953 0.44914508
9.6206226 -14.269122 0.44914508
9.591363 -14.221397 0.44914508
9.5574837 -14.176832 0.44914508
9.5193253 -14.135872 0.44914508
9.4772682 -14.098926 0.44914508
9.4317331 -14.066362 0.44914508
9.3831739 -14.038508 0.44914508
9.332077 -14.01564 0.44914508
9.2789526 -13.997989 0.44914508
9.2243309 -13.985728 0.44914508
9.1687584 -13.978983 0.44914508
9.1127901 -13.977818 0.44914508
9.0569849 -13.982248 0.44914508
9.0019007 -13.992227 0.44914508
8.9480877 -14.007654 0.44914508
8.8960848 -14.028377 0.44914508
8.8464098 -14.054188 0.44914508
8.7995596 -14.084829 0.44914508
8.7560024 -14.119995 0.44914508
8.7161741 -14.159333 0.44914508
8.6804714 -14.202451 0.44914508
8.6492519 -14.248918 0.44914508
8.6228275 -14.298269 0.44914508
8.6014624 -14.350012 0.44914508
8.5853691 -14.403629 0.44914508
8.5747089 -14.458586 0.44914508
8.5695887 -14.514332 0.44914508
8.5700588 -14.57031 0.44914508
8.5761156 -14.625961 0.44914508
8.587698 -14.680731 0.44914508
8.6046906 -14.73407 0.44914508
8.6269226 -14.785446 0.44914508
8.6541739 -14.834347 0.44914508
8.6861696 -14.880282 0.44914508
8.7225924 -14.922793 0.44914508
8.7630768 -14.961456 0.44914508
8.8072186 -14.995885 0.44914508
8.8545771 -15.025734 0.44914508
8.9046793 -15.050707 0.44914508
8.9570236 -15.070552 0.44914508
9.0110884 -15.085073 0.44914508
9.0663319 -15.094124 0.44914508
9.1222038 -15.097614 0.44914508
9.1781445 -15.09551 0.44914508
9.2335958 -15.087831 0.44914508
9.288003 -15.074654 0.44914508
9.3408232 -15.056111 0.44914508
9.3915291 -15.032388 0.44914508
9.4396124 -15.003721 0.44914508
9.4845943 -14.970398 0.44914508
9.5260239 -14.93275 0.44914508
9.563489 -14.891153 0.44914508
9.5966129 -14.846025 0.44914508
9.6250668 -14.797815 0.44914508
9.6485662 -14.747005 0.44914508
9.6668749 -14.694104 0.44914508
9.6798105 -14.639639 0.44914508
9.6872444 -14.584154 0.44914508
9.6253471 -14.537619 0.39628893
9.6228676 -14.488081 0.39628893
9.6154556 -14.439038 0.39628893
9.6031847 -14.390981 0.39628893
9.5861769 -14.344388 0.39628893
9.5646029 -14.299726 0.39628893
9.5386772 -14.257441 0.39628893
9.5086603 -14.217956 0.39628893
9.4748516 -14.181664 0.39628893
9.4375877 -14.148929 0.39628893
9.3972425 -14.120077 0.39628893
9.3542194 -14.095398 0.39628893
9.3089457 -14.075137 0.39628893
9.2618771 -14.059497 0.39628893
9.2134809 -14.048635 0.39628893
9.1642427 -14.042658 0.39628893
9.1146536 -14.041626 0.39628893
9.0652094 -14.04555 0.39628893
9.0164042 -14.054392 0.39628893
8.9687252 -14.068061 0.39628893
8.9226484 -14.086422 0.39628893
8.8786364 -14.109291 0.39628893
8.8371258 -14.136439 0.39628893
8.7985334 -14.167597 0.39628893
8.7632446 -14.202451 0.39628893
8.7316122 -14.240654 0.39628893
8.7039509 -14.281824 0.39628893
8.6805382 -14.325551 0.39628893
8.6616087 -14.371396 0.39628893
8.6473494 -14.418901 0.39628893
8.6379042 -14.467594 0.39628893
8.6333675 -14.516986 0.39628893
8.6337852 -14.566584 0.39628893
8.6391516 -14.615892 0.39628893
8.6494131 -14.664418 0.39628893
8.6644688 -14.711679 0.39628893
8.6841669 -14.757198 0.39628893
8.708312 -14.800525 0.39628893
8.736661 -14.841225 0.39628893
8.7689314 -14.87889 0.39628893
8.8048019 -14.913147 0.39628893
8.8439121 -14.94365 0.39628893
8.8858728 -14.970098 0.39628893
8.9302635 -14.992224 0.39628893
8.9766417 -15.009808 0.39628893
9.0245438 -15.022673 0.39628893
9.0734911 -15.030692 0.39628893
9.1229944 -15.033785 0.39628893
9.1725588 -15.031919 0.39628893
9.2216902 -15.025116 0.39628893
9.2698956 -15.013441 0.39628893
9.3166962 -14.997012 0.39628893
9.3616219 -14.975993 0.39628893
9.4042244 -14.950594 0.39628893
9.4440784 -14.921068 0.39628893
9.4807863 -14.887712 0.39628893
9.5139809 -14.850857 0.39628893
9.5433302 -14.810872 0.39628893
9.5685406 -14.768158 0.39628893
9.5893612 -14.723139 0.39628893
9.6055832 -14.676268 0.39628893
9.6170444 -14.62801 0.39628893
9.6236305 -14.57885 0.39628893
9.5565548 -14.537619 0.35006964
9.5544195 -14.494948 0.35006964
9.5480347 -14.452705 0.35006964
9.5374651 -14.41131 0.35006964
9.5228148 -14.371177 0.35006964
9.5042315 -14.332706 0.35006964
9.4819012 -14.296284 0.35006964
9.4560452 -14.262273 0.35006964
9.4269238 -14.231012 0.35006964
9.3948259 -14.202816 0.35006964
9.360074 -14.177964 0.35006964
9.3230152 -14.156706 0.35006964
9.2840185 -14.139255 0.35006964
9.243475 -14.125783 0.35006964
9.2017889 -14.116426 0.35006964
9.1593761 -14.111278 0.35006964
9.116662 -14.11039 0.35006964
9.0740728 -14.11377 0.35006964
9.0320339 -14.121385 0.35006964
8.9909649 -14.133159 0.35006964
8.9512768 -14.148974 0.35006964
8.9133654 -14.168673 0.35006964
8.8776102 -14.192058 0.35006964
8.8443689 -14.218896 0.35006964
8.8139725 -14.248918 0.35006964
8.786725 -14.281824 0.35006964
8.7628984 -14.317287 0.35006964
8.742732 -14.354951 0.35006964
8.7264261 -14.394441 0.35006964
8.7141438 -14.43536 0.35006964
8.7060089 -14.477302 0.35006964
8.7021008 -14.519846 0.35006964
8.7024603 -14.562568 0.35006964
8.7070827 -14.605041 0.35006964
8.7159214 -14.646839 0.35006964
8.7288904 -14.687547 0.35006964
8.7458572 -14.726756 0.35006964
8.766655 -14.764076 0.35006964
8.7910738 -14.799133 0.35006964
8.8188705 -14.831577 0.35006964
8.8497677 -14.861084 0.35006964
8.8834562 -14.88736 0.35006964
8.9195986 -14.91014 0.35006964
8.9578362 -14.929198 0.35006964
8.9977846 -14.944345 0.35006964
9.0390453 -14.955426 0.35006964
9.0812063 -14.962334 0.35006964
9.123847 -14.964997 0.35006964
9.1665401 -14.963391 0.35006964
9.2088594 -14.957531 0.35006964
9.2503824 -14.947474 0.35006964
9.2906942 -14.933323 0.35006964
9.3293915 -14.915218 0.35006964
9.3660879 -14.89334 0.35006964
9.4004173 -14.867908 0.35006964
9.4320354 -14.839175 0.35006964
9.4606276 -14.80743 0.35006964
9.4859076 -14.772989 0.35006964
9.5076237 -14.736197 0.35006964
9.5255575 -14.697419 0.35006964
9.5395308 -14.657045 0.35006964
9.5494032 -14.615479 0.35006964
9.5550766 -14.573133 0.35006964
9.4834909 -14.537619 0.31094903
9.4817209 -14.502243 0.31094903
9.476428 -14.46722 0.31094903
9.4676647 -14.432901 0.31094903
9.4555197 -14.399629 0.31094903
9.4401131 -14.367735 0.31094903
9.4215994 -14.337539 0.31094903
9.4001637 -14.309341 0.31094903
9.3760195 -14.283424 0.31094903
9.3494091 -14.260048 0.31094903
9.3205976 -14.239445 0.31094903
9.2898741 -14.221821 0.31094903
9.2575436 -14.207352 0.31094903
9.2239304 -14.196183 0.31094903
9.1893702 -14.188426 0.31094903
9.1542082 -14.184157 0.31094903
9.1187954 -14.183421 0.31094903
9.0834866 -14.186224 0.31094903
9.0486336 -14.192537 0.31094903
9.0145855 -14.202298 0.31094903
8.9816818 -14.21541 0.31094903
8.9502516 -14.231742 0.31094903
8.9206085 -14.251129 0.31094903
8.8930492 -14.273379 0.31094903
8.8678484 -14.298269 0.31094903
8.8452587 -14.325551 0.31094903
8.8255053 -14.354951 0.31094903
8.8087864 -14.386177 0.31094903
8.7952681 -14.418916 0.31094903
8.7850847 -14.452841 0.31094903
8.7783403 -14.487613 0.31094903
8.7751007 -14.522884 0.31094903
8.7753983 -14.558303 0.31094903
8.7792311 -14.593515 0.31094903
8.7865591 -14.628169 0.31094903
8.7973108 -14.661918 0.31094903
8.8113775 -14.694425 0.31094903
8.828619 -14.725365 0.31094903
8.8488646 -14.754429 0.31094903
8.8719091 -14.781327 0.31094903
8.8975248 -14.80579 0.31094903
8.9254541 -14.827574 0.31094903
8.9554186 -14.84646 0.31094903
8.9871197 -14.862261 0.31094903
9.0202389 -14.874817 0.31094903
9.0544472 -14.884005 0.31094903
9.0894012 -14.889731 0.31094903
9.124752 -14.89194 0.31094903
9.1601467 -14.890608 0.31094903
9.1952324 -14.88575 0.31094903
9.2296572 -14.877413 0.31094903
9.2630777 -14.86568 0.31094903
9.2951603 -14.85067 0.31094903
9.3255835 -14.832532 0.31094903
9.3540449 -14.811447 0.31094903
9.3802586 -14.787626 0.31094903
9.4039631 -14.761308 0.31094903
9.424921 -14.732754 0.31094903
9.4429245 -14.70225 0.31094903
9.4577932 -14.670102 0.31094903
9.4693775 -14.63663 0.31094903
9.477562 -14.602169 0.31094903
9.4822655 -14.567062 0.31094903
9.406888 -14.537619 0.27931803
9.4055004 -14.509891 0.27931803
9.401351 -14.482439 0.27931803
9.3944826 -14.45554 0.27931803
9.384963 -14.42946 0.27931803
9.3728867 -14.404461 0.27931803
9.3583755 -14.380792 0.27931803
9.3415737 -14.35869 0.27931803
9.32265 -14.338376 0.27931803
9.3017921 -14.320053 0.27931803
9.2792091 -14.303905 0.27931803
9.255127 -14.290091 0.27931803
9.2297859 -14.278749 0.27931803
9.2034388 -14.269995 0.27931803
9.1763506 -14.263915 0.27931803
9.1487894 -14.26057 0.27931803
9.1210327 -14.259992 0.27931803
9.0933571 -14.262189 0.27931803
9.0660381 -14.267138 0.27931803
9.0393505 -14.274789 0.27931803
9.0135603 -14.285066 0.27931803
8.988924 -14.297867 0.27931803
8.9656897 -14.313063 0.27931803
8.944088 -14.330503 0.27931803
8.9243355 -14.350012 0.27931803
8.9066296 -14.371396 0.27931803
8.8911457 -14.394441 0.27931803
8.8780413 -14.418916 0.27931803
8.867445 -14.444577 0.27931803
8.8594637 -14.471169 0.27931803
8.8541775 -14.498423 0.27931803
8.8516378 -14.52607 0.27931803
8.8518715 -14.553831 0.27931803
8.8548756 -14.581431 0.27931803
8.8606195 -14.608594 0.27931803
8.8690462 -14.635047 0.27931803
8.8800726 -14.660526 0.27931803
8.8935871 -14.684777 0.27931803
8.9094553 -14.707559 0.27931803
8.9275179 -14.728642 0.27931803
8.9475965 -14.747816 0.27931803
8.9694881 -14.764891 0.27931803
8.9929752 -14.779695 0.27931803
9.0178223 -14.792079 0.27931803
9.0437822 -14.801921 0.27931803
9.0705948 -14.809123 0.27931803
9.0979919 -14.813611 0.27931803
9.125701 -14.815342 0.27931803
9.1534443 -14.814299 0.27931803
9.1809454 -14.81049 0.27931803
9.2079277 -14.803955 0.27931803
9.2341232 -14.79476 0.27931803
9.2592707 -14.782994 0.27931803
9.2831173 -14.768777 0.27931803
9.3054247 -14.752251 0.27931803
9.3259716 -14.73358 0.27931803
9.344552 -14.712951 0.27931803
9.36098 -14.69057 0.27931803
9.3750906 -14.66666 0.27931803
9.3867455 -14.641462 0.27931803
9.3958254 -14.615226 0.27931803
9.4022408 -14.588214 0.27931803
9.4059277 -14.560698 0.27931803
9.3275089 -14.537619 0.25549269
9.3265181 -14.517815 0.25549269
9.323555 -14.498209 0.25549269
9.3186493 -14.478997 0.25549269
9.3118505 -14.460371 0.25549269
9.3032255 -14.442516 0.25549269
9.2928619 -14.425612 0.25549269
9.2808619 -14.409827 0.25549269
9.2673464 -14.395319 0.25549269
9.252449 -14.382233 0.25549269
9.2363205 -14.370699 0.25549269
9.219121 -14.360833 0.25549269
9.2010221 -14.352734 0.25549269
9.1822052 -14.346481 0.25549269
9.162859 -14.342138 0.25549269
9.1431742 -14.339749 0.25549269
9.1233501 -14.339336 0.25549269
9.1035843 -14.340906 0.25549269
9.0840731 -14.34444 0.25549269
9.0650129 -14.349904 0.25549269
9.0465927 -14.357244 0.25549269
9.0289984 -14.366387 0.25549269
9.0124035 -14.37724 0.25549269
8.9969759 -14.389696 0.25549269
8.9828682 -14.403629 0.25549269
8.9702225 -14.418901 0.25549269
8.9591646 -14.43536 0.25549269
8.9498053 -14.452841 0.25549269
8.9422379 -14.471169 0.25549269
8.9365377 -14.490159 0.25549269
8.9327612 -14.509625 0.25549269
8.9309483 -14.52937 0.25549269
8.9311142 -14.549198 0.25549269
8.93326 -14.56891 0.25549269
8.9373627 -14.588309 0.25549269
8.9433813 -14.607202 0.25549269
8.9512558 -14.6254 0.25549269
8.9609079 -14.64272 0.25549269
8.9722414 -14.658991 0.25549269
8.9851418 -14.674048 0.25549269
8.9994812 -14.687742 0.25549269
9.0151167 -14.699937 0.25549269
9.0318909 -14.71051 0.25549269
9.0496378 -14.719355 0.25549269
9.0681782 -14.726384 0.25549269
9.087328 -14.731527 0.25549269
9.1068954 -14.734734 0.25549269
9.1266851 -14.73597 0.25549269
9.1464996 -14.735224 0.25549269
9.1661406 -14.732504 0.25549269
9.1854115 -14.727838 0.25549269
9.2041206 -14.72127 0.25549269
9.2220802 -14.712867 0.25549269
9.2391119 -14.702713 0.25549269
9.255044 -14.690909 0.25549269
9.2697182 -14.677574 0.25549269
9.2829885 -14.662841 0.25549269
9.2947216 -14.646856 0.25549269
9.3048 -14.629781 0.25549269
9.3131227 -14.611784 0.25549269
9.3196077 -14.593046 0.25549269
9.3241901 -14.573754 0.25549269
9.3268232 -14.554102 0.25549269
9.2461481 -14.537619 0.23971093
9.2455635 -14.525938 0.23971093
9.2438164 -14.514373 0.23971093
9.2409229 -14.503041 0.23971093
9.2369118 -14.492055 0.23971093
9.2318249 -14.481524 0.23971093
9.2257118 -14.471552 0.23971093
9.2186337 -14.462241 0.23971093
9.2106609 -14.453684 0.23971093
9.2018747 -14.445965 0.23971093
9.1923609 -14.439161 0.23971093
9.1822157 -14.433342 0.23971093
9.1715403 -14.428565 0.23971093
9.1604414 -14.424877 0.23971093
9.1490297 -14.422316 0.23971093
9.1374197 -14.420906 0.23971093
9.1257257 -14.420663 0.23971093
9.1140671 -14.421588 0.23971093
9.1025591 -14.423673 0.23971093
9.0913162 -14.426896 0.23971093
9.080451 -14.431226 0.23971093
9.0700731 -14.436618 0.23971093
9.0602846 -14.44302 0.23971093
9.0511847 -14.450367 0.23971093
9.0428638 -14.458586 0.23971093
9.0354042 -14.467594 0.23971093
9.028882 -14.477302 0.23971093
9.0233612 -14.487613 0.23971093
9.0188971 -14.498423 0.23971093
9.0155354 -14.509625 0.23971093
9.0133076 -14.521107 0.23971093
9.0122385 -14.532753 0.23971093
9.0123367 -14.544449 0.23971093
9.0136023 -14.556076 0.23971093
9.0160217 -14.567518 0.23971093
9.0195723 -14.578662 0.23971093
9.0242167 -14.589396 0.23971093
9.0299101 -14.599612 0.23971093
9.0365953 -14.609209 0.23971093
9.0442047 -14.618091 0.23971093
9.0526628 -14.626168 0.23971093
9.0618849 -14.633362 0.23971093
9.0717793 -14.639598 0.23971093
9.0822468 -14.644815 0.23971093
9.0931826 -14.648961 0.23971093
9.1044779 -14.651996 0.23971093
9.1160202 -14.653886 0.23971093
9.1276932 -14.654615 0.23971093
9.1393805 -14.654176 0.23971093
9.1509657 -14.652572 0.23971093
9.1623325 -14.649818 0.23971093
9.1733685 -14.645945 0.23971093
9.1839619 -14.640988 0.23971093
9.1940079 -14.634999 0.23971093
9.2034054 -14.628036 0.23971093
9.2120609 -14.620172 0.23971093
9.2198877 -14.611481 0.23971093
9.2268085 -14.602053 0.23971093
9.2327538 -14.59198 0.23971093
9.2376633 -14.581365 0.23971093
9.2414885 -14.570312 0.23971093
9.2441912 -14.558933 0.23971093
9.2457438 -14.547341 0.23971093
9.163619 -14.537619 0.23213047
9.1634464 -14.534177 0.23213047
9.1629314 -14.530769 0.23213047
9.1620789 -14.527431 0.23213047
9.1608973 -14.524193 0.23213047
9.1593981 -14.52109 0.23213047
9.1575966 -14.518152 0.23213047
9.1555119 -14.515409 0.23213047
9.153162 -14.512887 0.23213047
9.1505737 -14.510612 0.23213047
9.1477699 -14.508608 0.23213047
9.1447811 -14.506893 0.23213047
9.1416349 -14.505486 0.23213047
9.1383648 -14.504399 0.23213047
9.1350021 -14.503644 0.23213047
9.1315813 -14.503229 0.23213047
9.1281357 -14.503158 0.23213047
9.1247005 -14.50343 0.23213047
9.1213093 -14.504045 0.23213047
9.1179972 -14.504994 0.23213047
9.1147957 -14.506269 0.23213047
9.1117373 -14.507858 0.23213047
9.1088533 -14.509745 0.23213047
9.1061726 -14.511909 0.23213047
9.1037207 -14.514332 0.23213047
9.1015224 -14.516986 0.23213047
9.0996008 -14.519846 0.23213047
9.0979738 -14.522884 0.23213047
9.0966587 -14.52607 0.23213047
9.0956678 -14.52937 0.23213047
9.0950117 -14.532753 0.23213047
9.094697 -14.536185 0.23213047
9.0947256 -14.539631 0.23213047
9.0950985 -14.543057 0.23213047
9.0958118 -14.546429 0.23213047
9.0968571 -14.549712 0.23213047
9.0982265 -14.552875 0.23213047
9.0999041 -14.555885 0.23213047
9.1018734 -14.558713 0.23213047
9.1041155 -14.56133 0.23213047
9.1066074 -14.56371 0.23213047
9.1093254 -14.565829 0.23213047
9.1122408 -14.567667 0.23213047
9.115325 -14.569204 0.23213047
9.1185474 -14.570426 0.23213047
9.1218758 -14.57132 0.23213047
9.1252766 -14.571877 0.23213047
9.1287155 -14.572092 0.23213047
9.1321592 -14.571962 0.23213047
9.1355724 -14.571489 0.23213047
9.1389217 -14.570679 0.23213047
9.1421738 -14.569537 0.23213047
9.1452951 -14.568076 0.23213047
9.1482553 -14.566312 0.23213047
9.1510239 -14.56426 0.23213047
9.1535749 -14.561943 0.23213047
9.1558809 -14.559382 0.23213047
9.1579199 -14.556604 0.23213047
9.1596718 -14.553637 0.23213047
9.1611185 -14.550508 0.23213047
9.1622458 -14.547252 0.23213047
9.1630421 -14.543899 0.23213047
9.1634998 -14.540483 0.23213047
25.818735 -5.1756544 -0.48124421
25.818735 -5.1756544 -0.38124421
25.818735 -5.1756544 -0.28124422
25.818735 -5.1756544 -0.18124422
25.818735 -5.1756544 -0.081244223
25.818735 -5.1756544 0.018755779
25.818735 -5.1756544 0.11875578
25.818735 -5.1756544 0.21875578
25.818735 -5.1756544 0.31875578
25.818735 -5.1756544 0.41875577
25.818735 -5.1756544 0.51875579
25.818735 -5.1756544 0.61875582
