# .PCD v0.7 - Point Cloud Data file format
VERSION 0.7
FIELDS x y z
SIZE 4 4 4
TYPE F F F
COUNT 1 1 1
WIDTH 1544
HEIGHT 1
VIEWPOINT 0 0 0 1 0 0 0
POINTS 1544
DATA ascii
15.569994 -9.907445 1.2789356
15.569994 -9.907445 1.3789356
15.569994 -9.907445 1.4789356
15.554355 -9.9880714 -0.12106454
15.554355 -9.9880714 -0.021064542
15.554355 -9.9880714 0.078935459
15.554355 -9.9880714 0.17893547
15.554355 -9.9880714 0.27893546
15.554355 -9.9880714 0.37893546
15.554355 -9.9880714 0.47893545
15.554355 -9.9880714 0.57893544
15.554355 -9.9880714 0.67893547
15.554355 -9.9880714 0.77893549
15.554355 -9.9880714 0.87893552
15.554355 -9.9880714 0.97893554
15.554355 -9.9880714 1.0789355
15.554355 -9.9880714 1.1789355
15.554355 -9.9880714 1.2789356
15.554355 -9.9880714 1.3789356
15.554355 -9.9880714 1.4789356
15.546843 -10.069857 -0.12106454
15.546843 -10.069857 -0.021064542
15.546843 -10.069857 0.078935459
15.546843 -10.069857 0.17893547
15.546843 -10.069857 0.27893546
15.546843 -10.069857 0.37893546
15.546843 -10.069857 0.47893545
15.546843 -10.069857 0.57893544
15.546843 -10.069857 0.67893547
15.546843 -10.069857 0.77893549
15.546843 -10.069857 0.87893552
15.546843 -10.069857 0.97893554
15.546843 -10.069857 1.0789355
15.546843 -10.069857 1.1789355
15.546843 -10.069857 1.2789356
15.546843 -10.069857 1.3789356
15.546843 -10.069857 1.4789356
15.547533 -10.151982 -0.12106454
15.547533 -10.151982 -0.021064542
15.547533 -10.151982 0.078935459
15.547533 -10.151982 0.17893547
15.547533 -10.151982 0.27893546
15.547533 -10.151982 0.37893546
15.547533 -10.151982 0.47893545
15.547533 -10.151982 0.57893544
15.547533 -10.151982 0.67893547
15.547533 -10.151982 0.77893549
15.547533 -10.151982 0.87893552
15.547533 -10.151982 0.97893554
15.547533 -10.151982 1.0789355
15.547533 -10.151982 1.1789355
15.547533 -10.151982 1.2789356
15.547533 -10.151982 1.3789356
15.547533 -10.151982 1.4789356
15.556419 -10.23363 -0.12106454
15.556419 -10.23363 -0.021064542
15.556419 -10.23363 0.078935459
15.556419 -10.23363 0.17893547
15.556419 -10.23363 0.27893546
15.556419 -10.23363 0.37893546
15.556419 -10.23363 0.47893545
15.556419 -10.23363 0.57893544
15.556419 -10.23363 0.67893547
15.556419 -10.23363 0.77893549
15.556419 -10.23363 0.87893552
15.556419 -10.23363 0.97893554
15.556419 -10.23363 1.0789355
15.556419 -10.23363 1.1789355
15.556419 -10.23363 1.2789356
15.556419 -10.23363 1.3789356
15.556419 -10.23363 1.4789356
15.573412 -10.313982 -0.12106454
15.573412 -10.313982 -0.021064542
15.573412 -10.313982 0.078935459
15.573412 -10.313982 0.17893547
15.573412 -10.313982 0.27893546
15.573412 -10.313982 0.37893546
15.573412 -10.313982 0.47893545
15.573412 -10.313982 0.57893544
15.573412 -10.313982 0.67893547
15.573412 -10.313982 0.77893549
15.573412 -10.313982 0.87893552
15.573412 -10.313982 0.97893554
15.573412 -10.313982 1.0789355
15.573412 -10.313982 1.1789355
15.573412 -10.313982 1.2789356
15.573412 -10.313982 1.3789356
15.573412 -10.313982 1.4789356
15.598342 -10.392237 -0.12106454
15.598342 -10.392237 -0.021064542
15.598342 -10.392237 0.078935459
15.598342 -10.392237 0.17893547
15.598342 -10.392237 0.27893546
15.598342 -10.392237 0.37893546
15.598342 -10.392237 0.47893545
15.598342 -10.392237 0.57893544
15.598342 -10.392237 0.67893547
15.598342 -10.392237 0.77893549
15.598342 -10.392237 0.87893552
15.598342 -10.392237 0.97893554
15.598342 -10.392237 1.0789355
15.598342 -10.392237 1.1789355
15.598342 -10.392237 1.2789356
15.598342 -10.392237 1.3789356
15.598342 -10.392237 1.4789356
15.63096 -10.467611 -0.12106454
15.63096 -10.467611 -0.021064542
15.63096 -10.467611 0.078935459
15.63096 -10.467611 0.17893547
15.63096 -10.467611 0.27893546
15.63096 -10.467611 0.37893546
15.63096 -10.467611 0.47893545
15.63096 -10.467611 0.57893544
15.63096 -10.467611 0.67893547
15.63096 -10.467611 0.77893549
15.63096 -10.467611 0.87893552
15.63096 -10.467611 0.97893554
15.63096 -10.467611 1.0789355
15.63096 -10.467611 1.1789355
15.63096 -10.467611 1.2789356
15.63096 -10.467611 1.3789356
15.63096 -10.467611 1.4789356
15.670938 -10.539353 -0.12106454
15.670938 -10.539353 -0.021064542
15.670938 -10.539353 0.078935459
15.670938 -10.539353 0.17893547
15.670938 -10.539353 0.27893546
15.670938 -10.539353 0.37893546
15.670938 -10.539353 0.47893545
15.670938 -10.539353 0.57893544
15.670938 -10.539353 0.67893547
15.670938 -10.539353 0.77893549
15.670938 -10.539353 0.87893552
15.670938 -10.539353 0.97893554
15.670938 -10.539353 1.0789355
15.670938 -10.539353 1.1789355
15.670938 -10.539353 1.2789356
15.670938 -10.539353 1.3789356
15.670938 -10.539353 1.4789356
15.71788 -10.606745 -0.12106454
15.71788 -10.606745 -0.021064542
15.71788 -10.606745 0.078935459
15.71788 -10.606745 0.17893547
15.71788 -10.606745 0.27893546
15.71788 -10.606745 0.37893546
15.71788 -10.606745 0.47893545
15.71788 -10.606745 0.57893544
15.71788 -10.606745 0.67893547
15.71788 -10.606745 0.77893549
15.71788 -10.606745 0.87893552
15.71788 -10.606745 0.97893554
15.71788 -10.606745 1.0789355
15.71788 -10.606745 1.1789355
15.71788 -10.606745 1.2789356
15.71788 -10.606745 1.3789356
15.71788 -10.606745 1.4789356
15.771316 -10.669114 -0.12106454
15.771316 -10.669114 -0.021064542
15.771316 -10.669114 0.078935459
15.771316 -10.669114 0.17893547
15.771316 -10.669114 0.27893546
15.771316 -10.669114 0.37893546
15.771316 -10.669114 0.47893545
15.771316 -10.669114 0.57893544
15.771316 -10.669114 0.67893547
15.771316 -10.669114 0.77893549
15.771316 -10.669114 0.87893552
15.771316 -10.669114 0.97893554
15.771316 -10.669114 1.0789355
15.771316 -10.669114 1.1789355
15.771316 -10.669114 1.2789356
15.771316 -10.669114 1.3789356
15.771316 -10.669114 1.4789356
15.83071 -10.725837 -0.12106454
15.83071 -10.725837 -0.021064542
15.83071 -10.725837 0.078935459
15.83071 -10.725837 0.17893547
15.83071 -10.725837 0.27893546
15.83071 -10.725837 0.37893546
15.83071 -10.725837 0.47893545
15.83071 -10.725837 0.57893544
15.83071 -10.725837 0.67893547
15.83071 -10.725837 0.77893549
15.83071 -10.725837 0.87893552
15.83071 -10.725837 0.97893554
15.83071 -10.725837 1.0789355
15.83071 -10.725837 1.1789355
15.83071 -10.725837 1.2789356
15.83071 -10.725837 1.3789356
15.83071 -10.725837 1.4789356
15.895472 -10.776347 -0.12106454
15.895472 -10.776347 -0.021064542
15.895472 -10.776347 0.078935459
15.895472 -10.776347 0.17893547
15.895472 -10.776347 0.27893546
15.895472 -10.776347 0.37893546
15.895472 -10.776347 0.47893545
15.895472 -10.776347 0.57893544
15.895472 -10.776347 0.67893547
15.895472 -10.776347 0.77893549
15.895472 -10.776347 0.87893552
15.895472 -10.776347 0.97893554
15.895472 -10.776347 1.0789355
15.895472 -10.776347 1.1789355
15.895472 -10.776347 1.2789356
15.895472 -10.776347 1.3789356
15.895472 -10.776347 1.4789356
15.964952 -10.820139 -0.12106454
15.964952 -10.820139 -0.021064542
15.964952 -10.820139 0.078935459
15.964952 -10.820139 0.17893547
15.964952 -10.820139 0.27893546
15.964952 -10.820139 0.37893546
15.964952 -10.820139 0.47893545
15.964952 -10.820139 0.57893544
15.964952 -10.820139 0.67893547
15.964952 -10.820139 0.77893549
15.964952 -10.820139 0.87893552
15.964952 -10.820139 0.97893554
15.964952 -10.820139 1.0789355
15.964952 -10.820139 1.1789355
15.964952 -10.820139 1.2789356
15.964952 -10.820139 1.3789356
15.964952 -10.820139 1.4789356
16.038456 -10.856776 -0.12106454
16.038456 -10.856776 -0.021064542
16.038456 -10.856776 0.078935459
16.038456 -10.856776 0.17893547
16.038456 -10.856776 0.27893546
16.038456 -10.856776 0.37893546
16.038456 -10.856776 0.47893545
16.038456 -10.856776 0.57893544
16.038456 -10.856776 0.67893547
16.038456 -10.856776 0.77893549
16.038456 -10.856776 0.87893552
16.038456 -10.856776 0.97893554
16.038456 -10.856776 1.0789355
16.038456 -10.856776 1.1789355
16.038456 -10.856776 1.2789356
16.038456 -10.856776 1.3789356
16.038456 -10.856776 1.4789356
16.115252 -10.885892 -0.12106454
16.115252 -10.885892 -0.021064542
16.115252 -10.885892 0.078935459
16.115252 -10.885892 0.17893547
16.115252 -10.885892 0.27893546
16.115252 -10.885892 0.37893546
16.115252 -10.885892 0.47893545
16.115252 -10.885892 0.57893544
16.115252 -10.885892 0.67893547
16.115252 -10.885892 0.77893549
16.115252 -10.885892 0.87893552
16.115252 -10.885892 0.97893554
16.115252 -10.885892 1.0789355
16.115252 -10.885892 1.1789355
16.115252 -10.885892 1.2789356
16.115252 -10.885892 1.3789356
16.115252 -10.885892 1.4789356
16.194571 -10.907195 -0.12106454
16.194571 -10.907195 -0.021064542
16.194571 -10.907195 0.078935459
16.194571 -10.907195 0.17893547
16.194571 -10.907195 0.27893546
16.194571 -10.907195 0.37893546
16.194571 -10.907195 0.47893545
16.194571 -10.907195 0.57893544
16.194571 -10.907195 0.67893547
16.194571 -10.907195 0.77893549
16.194571 -10.907195 0.87893552
16.194571 -10.907195 0.97893554
16.194571 -10.907195 1.0789355
16.194571 -10.907195 1.1789355
16.194571 -10.907195 1.2789356
16.194571 -10.907195 1.3789356
16.194571 -10.907195 1.4789356
16.27562 -10.920474 -0.12106454
16.27562 -10.920474 -0.021064542
16.27562 -10.920474 0.078935459
16.27562 -10.920474 0.17893547
16.27562 -10.920474 0.27893546
16.27562 -10.920474 0.37893546
16.27562 -10.920474 0.47893545
16.27562 -10.920474 0.57893544
16.27562 -10.920474 0.67893547
16.27562 -10.920474 0.77893549
16.27562 -10.920474 0.87893552
16.27562 -10.920474 0.97893554
16.27562 -10.920474 1.0789355
16.27562 -10.920474 1.1789355
16.27562 -10.920474 1.2789356
16.27562 -10.920474 1.3789356
16.27562 -10.920474 1.4789356
16.357588 -10.925594 -0.12106454
16.357588 -10.925594 -0.021064542
16.357588 -10.925594 0.078935459
16.357588 -10.925594 0.17893547
16.357588 -10.925594 0.27893546
16.357588 -10.925594 0.37893546
16.357588 -10.925594 0.47893545
16.357588 -10.925594 0.57893544
16.357588 -10.925594 0.67893547
16.357588 -10.925594 0.77893549
16.357588 -10.925594 0.87893552
16.357588 -10.925594 0.97893554
16.357588 -10.925594 1.0789355
16.357588 -10.925594 1.1789355
16.357588 -10.925594 1.2789356
16.357588 -10.925594 1.3789356
16.357588 -10.925594 1.4789356
16.439659 -10.922506 -0.12106454
16.439659 -10.922506 -0.021064542
16.439659 -10.922506 0.078935459
16.439659 -10.922506 0.17893547
16.439659 -10.922506 0.27893546
16.439659 -10.922506 0.37893546
16.439659 -10.922506 0.47893545
16.439659 -10.922506 0.57893544
16.439659 -10.922506 0.67893547
16.439659 -10.922506 0.77893549
16.439659 -10.922506 0.87893552
16.439659 -10.922506 0.97893554
16.439659 -10.922506 1.0789355
16.439659 -10.922506 1.1789355
16.439659 -10.922506 1.2789356
16.439659 -10.922506 1.3789356
16.439659 -10.922506 1.4789356
16.521013 -10.911241 -0.12106454
16.521013 -10.911241 -0.021064542
16.521013 -10.911241 0.078935459
16.521013 -10.911241 0.17893547
16.521013 -10.911241 0.27893546
16.521013 -10.911241 0.37893546
16.521013 -10.911241 0.47893545
16.521013 -10.911241 0.57893544
16.521013 -10.911241 0.67893547
16.521013 -10.911241 0.77893549
16.521013 -10.911241 0.87893552
16.521013 -10.911241 0.97893554
16.521013 -10.911241 1.0789355
16.521013 -10.911241 1.1789355
16.521013 -10.911241 1.2789356
16.521013 -10.911241 1.3789356
16.521013 -10.911241 1.4789356
16.600834 -10.891909 -0.12106454
16.600834 -10.891909 -0.021064542
16.600834 -10.891909 0.078935459
16.600834 -10.891909 0.17893547
16.600834 -10.891909 0.27893546
16.600834 -10.891909 0.37893546
16.600834 -10.891909 0.47893545
16.600834 -10.891909 0.57893544
16.600834 -10.891909 0.67893547
16.600834 -10.891909 0.77893549
16.600834 -10.891909 0.87893552
16.600834 -10.891909 0.97893554
16.600834 -10.891909 1.0789355
16.600834 -10.891909 1.1789355
16.600834 -10.891909 1.2789356
16.600834 -10.891909 1.3789356
16.600834 -10.891909 1.4789356
16.678328 -10.864705 -0.12106454
16.678328 -10.864705 -0.021064542
16.678328 -10.864705 0.078935459
16.678328 -10.864705 0.17893547
16.678328 -10.864705 0.27893546
16.678328 -10.864705 0.37893546
16.678328 -10.864705 0.47893545
16.678328 -10.864705 0.57893544
16.678328 -10.864705 0.67893547
16.678328 -10.864705 0.77893549
16.678328 -10.864705 0.87893552
16.678328 -10.864705 0.97893554
16.678328 -10.864705 1.0789355
16.678328 -10.864705 1.1789355
16.678328 -10.864705 1.2789356
16.678328 -10.864705 1.3789356
16.678328 -10.864705 1.4789356
16.752718 -10.829901 -0.12106454
16.752718 -10.829901 -0.021064542
16.752718 -10.829901 0.078935459
16.752718 -10.829901 0.17893547
16.752718 -10.829901 0.27893546
16.752718 -10.829901 0.37893546
16.752718 -10.829901 0.47893545
16.752718 -10.829901 0.57893544
16.752718 -10.829901 0.67893547
16.752718 -10.829901 0.77893549
16.752718 -10.829901 0.87893552
16.752718 -10.829901 0.97893554
16.752718 -10.829901 1.0789355
16.752718 -10.829901 1.1789355
16.752718 -10.829901 1.2789356
16.752718 -10.829901 1.3789356
16.752718 -10.829901 1.4789356
16.823261 -10.787844 -0.12106454
16.823261 -10.787844 -0.021064542
16.823261 -10.787844 0.078935459
16.823261 -10.787844 0.17893547
16.823261 -10.787844 0.27893546
16.823261 -10.787844 0.37893546
16.823261 -10.787844 0.47893545
16.823261 -10.787844 0.57893544
16.823261 -10.787844 0.67893547
16.823261 -10.787844 0.77893549
16.823261 -10.787844 0.87893552
16.823261 -10.787844 0.97893554
16.823261 -10.787844 1.0789355
16.823261 -10.787844 1.1789355
16.823261 -10.787844 1.2789356
16.823261 -10.787844 1.3789356
16.823261 -10.787844 1.4789356
16.889254 -10.738955 -0.12106454
16.889254 -10.738955 -0.021064542
16.889254 -10.738955 0.078935459
16.889254 -10.738955 0.17893547
16.889254 -10.738955 0.27893546
16.889254 -10.738955 0.37893546
16.889254 -10.738955 0.47893545
16.889254 -10.738955 0.57893544
16.889254 -10.738955 0.67893547
16.889254 -10.738955 0.77893549
16.889254 -10.738955 0.87893552
16.889254 -10.738955 0.97893554
16.889254 -10.738955 1.0789355
16.889254 -10.738955 1.1789355
16.889254 -10.738955 1.2789356
16.889254 -10.738955 1.3789356
16.889254 -10.738955 1.4789356
16.950037 -10.683721 -0.12106454
16.950037 -10.683721 -0.021064542
16.950037 -10.683721 0.078935459
16.950037 -10.683721 0.17893547
16.950037 -10.683721 0.27893546
16.950037 -10.683721 0.37893546
16.950037 -10.683721 0.47893545
16.950037 -10.683721 0.57893544
16.950037 -10.683721 0.67893547
16.950037 -10.683721 0.77893549
16.950037 -10.683721 0.87893552
16.950037 -10.683721 0.97893554
16.950037 -10.683721 1.0789355
16.950037 -10.683721 1.1789355
16.950037 -10.683721 1.2789356
16.950037 -10.683721 1.3789356
16.950037 -10.683721 1.4789356
17.005001 -10.622695 -0.12106454
17.005001 -10.622695 -0.021064542
17.005001 -10.622695 0.078935459
17.005001 -10.622695 0.17893547
17.005001 -10.622695 0.27893546
17.005001 -10.622695 0.37893546
17.005001 -10.622695 0.47893545
17.005001 -10.622695 0.57893544
17.005001 -10.622695 0.67893547
17.005001 -10.622695 0.77893549
17.005001 -10.622695 0.87893552
17.005001 -10.622695 0.97893554
17.005001 -10.622695 1.0789355
17.005001 -10.622695 1.1789355
17.005001 -10.622695 1.2789356
17.005001 -10.622695 1.3789356
17.005001 -10.622695 1.4789356
17.053598 -10.556487 -0.12106454
17.053598 -10.556487 -0.021064542
17.053598 -10.556487 0.078935459
17.053598 -10.556487 0.17893547
17.053598 -10.556487 0.27893546
17.053598 -10.556487 0.37893546
17.053598 -10.556487 0.47893545
17.053598 -10.556487 0.57893544
17.053598 -10.556487 0.67893547
17.053598 -10.556487 0.77893549
17.053598 -10.556487 0.87893552
17.053598 -10.556487 0.97893554
17.053598 -10.556487 1.0789355
17.053598 -10.556487 1.1789355
17.053598 -10.556487 1.2789356
17.053598 -10.556487 1.3789356
17.053598 -10.556487 1.4789356
17.095343 -10.485758 -0.12106454
17.095343 -10.485758 -0.021064542
17.095343 -10.485758 0.078935459
17.095343 -10.485758 0.17893547
17.095343 -10.485758 0.27893546
17.095343 -10.485758 0.37893546
17.095343 -10.485758 0.47893545
17.095343 -10.485758 0.57893544
17.095343 -10.485758 0.67893547
17.095343 -10.485758 0.77893549
17.095343 -10.485758 0.87893552
17.095343 -10.485758 0.97893554
17.095343 -10.485758 1.0789355
17.095343 -10.485758 1.1789355
17.095343 -10.485758 1.2789356
17.095343 -10.485758 1.3789356
17.095343 -10.485758 1.4789356
17.129818 -10.411215 -0.12106454
17.129818 -10.411215 -0.021064542
17.129818 -10.411215 0.078935459
17.129818 -10.411215 0.17893547
17.129818 -10.411215 0.27893546
17.129818 -10.411215 0.37893546
17.129818 -10.411215 0.47893545
17.129818 -10.411215 0.57893544
17.129818 -10.411215 0.67893547
17.129818 -10.411215 0.77893549
17.129818 -10.411215 0.87893552
17.129818 -10.411215 0.97893554
17.129818 -10.411215 1.0789355
17.129818 -10.411215 1.1789355
17.129818 -10.411215 1.2789356
17.129818 -10.411215 1.3789356
17.129818 -10.411215 1.4789356
17.156679 -10.333602 -0.12106454
17.156679 -10.333602 -0.021064542
17.156679 -10.333602 0.078935459
17.156679 -10.333602 0.17893547
17.156679 -10.333602 0.27893546
17.156679 -10.333602 0.37893546
17.156679 -10.333602 0.47893545
17.156679 -10.333602 0.57893544
17.156679 -10.333602 0.67893547
17.156679 -10.333602 0.77893549
17.156679 -10.333602 0.87893552
17.156679 -10.333602 0.97893554
17.156679 -10.333602 1.0789355
17.156679 -10.333602 1.1789355
17.156679 -10.333602 1.2789356
17.156679 -10.333602 1.3789356
17.156679 -10.333602 1.4789356
17.175659 -10.253695 -0.12106454
17.175659 -10.253695 -0.021064542
17.175659 -10.253695 0.078935459
17.175659 -10.253695 0.17893547
17.175659 -10.253695 0.27893546
17.175659 -10.253695 0.37893546
17.175659 -10.253695 0.47893545
17.175659 -10.253695 0.57893544
17.175659 -10.253695 0.67893547
17.175659 -10.253695 0.77893549
17.175659 -10.253695 0.87893552
17.175659 -10.253695 0.97893554
17.175659 -10.253695 1.0789355
17.175659 -10.253695 1.1789355
17.175659 -10.253695 1.2789356
17.175659 -10.253695 1.3789356
17.175659 -10.253695 1.4789356
17.186565 -10.172294 -0.12106454
17.186565 -10.172294 -0.021064542
17.186565 -10.172294 0.078935459
17.186565 -10.172294 0.17893547
17.186565 -10.172294 0.27893546
17.186565 -10.172294 0.37893546
17.186565 -10.172294 0.47893545
17.186565 -10.172294 0.57893544
17.186565 -10.172294 0.67893547
17.186565 -10.172294 0.77893549
17.186565 -10.172294 0.87893552
17.186565 -10.172294 0.97893554
17.186565 -10.172294 1.0789355
17.186565 -10.172294 1.1789355
17.186565 -10.172294 1.2789356
17.186565 -10.172294 1.3789356
17.186565 -10.172294 1.4789356
25.131666 3.4503582 1.025636
25.131666 3.4503582 1.025636
25.131666 3.4503582 1.025636
25.131666 3.4503582 1.025636
25.131666 3.4503582 1.025636
25.131666 3.4503582 1.025636
25.131666 3.4503582 1.025636
25.131666 3.4503582 1.025636
25.131666 3.4503582 1.025636
25.131666 3.4503582 1.025636
25.131666 3.4503582 1.025636
25.131666 3.4503582 1.025636
25.131666 3.4503582 1.025636
25.131666 3.4503582 1.025636
25.131666 3.4503582 1.025636
25.131666 3.4503582 1.025636
25.131666 3.4503582 1.025636
25.131666 3.4503582 1.025636
25.131666 3.4503582 1.025636
25.131666 3.4503582 1.025636
25.131666 3.4503582 1.025636
25.131666 3.4503582 1.025636
25.131666 3.4503582 1.025636
25.131666 3.4503582 1.025636
25.131666 3.4503582 1.025636
25.131666 3.4503582 1.025636
25.131666 3.4503582 1.025636
25.131666 3.4503582 1.025636
25.131666 3.4503582 1.025636
25.131666 3.4503582 1.025636
25.131666 3.4503582 1.025636
25.131666 3.4503582 1.025636
25.131666 3.4503582 1.025636
25.131666 3.4503582 1.025636
25.131666 3.4503582 1.025636
25.131666 3.4503582 1.025636
25.131666 3.4503582 1.025636
25.131666 3.4503582 1.025636
25.131666 3.4503582 1.025636
25.131666 3.4503582 1.025636
25.131666 3.4503582 1.025636
25.131666 3.4503582 1.025636
25.131666 3.4503582 1.025636
25.131666 3.4503582 1.025636
25.131666 3.4503582 1.025636
25.131666 3.4503582 1.025636
25.131666 3.4503582 1.025636
25.131666 3.4503582 1.025636
25.131666 3.4503582 1.025636
25.131666 3.4503582 1.025636
25.131666 3.4503582 1.025636
25.131666 3.4503582 1.025636
25.131666 3.4503582 1.025636
25.131666 3.4503582 1.025636
25.131666 3.4503582 1.025636
25.131666 3.4503582 1.025636
25.131666 3.4503582 1.025636
25.131666 3.4503582 1.025636
25.131666 3.4503582 1.025636
25.131666 3.4503582 1.025636
25.131666 3.4503582 1.025636
25.131666 3.4503582 1.025636
25.131666 3.4503582 1.025636
25.207256 3.4503582 1.0218534
25.206879 3.4579046 1.0218534
25.20575 3.4653757 1.0218534
25.20388 3.4726965 1.0218534
25.20129 3.4797945 1.0218534
25.198004 3.486598 1.0218534
25.194054 3.4930396 1.0218534
25.189482 3.4990547 1.0218534
25.18433 3.5045834 1.0218534
25.178654 3.5095701 1.0218534
25.172508 3.5139651 1.0218534
25.165953 3.5177248 1.0218534
25.159058 3.5208113 1.0218534
25.151886 3.5231938 1.0218534
25.144514 3.5248485 1.0218534
25.137012 3.525759 1.0218534
25.129459 3.5259161 1.0218534
25.121927 3.5253184 1.0218534
25.114492 3.5239716 1.0218534
25.107229 3.5218892 1.0218534
25.10021 3.5190921 1.0218534
25.093504 3.5156083 1.0218534
25.087181 3.5114727 1.0218534
25.081303 3.5067263 1.0218534
25.075926 3.5014167 1.0218534
25.071108 3.4955969 1.0218534
25.066895 3.489325 1.0218534
25.063328 3.4826639 1.0218534
25.060444 3.4756801 1.0218534
25.058271 3.4684432 1.0218534
25.056833 3.4610255 1.0218534
25.056141 3.4535012 1.0218534
25.056206 3.4459457 1.0218534
25.057022 3.4384341 1.0218534
25.058586 3.4310417 1.0218534
25.060879 3.4238424 1.0218534
25.063879 3.416908 1.0218534
25.067558 3.4103079 1.0218534
25.071877 3.4041078 1.0218534
25.076792 3.3983698 1.0218534
25.082256 3.3931513 1.0218534
25.088215 3.3885045 1.0218534
25.094606 3.3844755 1.0218534
25.10137 3.3811049 1.0218534
25.108435 3.3784263 1.0218534
25.115732 3.3764665 1.0218534
25.123188 3.3752449 1.0218534
25.13073 3.3747737 1.0218534
25.138281 3.3750577 1.0218534
25.145765 3.3760943 1.0218534
25.153109 3.3778727 1.0218534
25.160238 3.3803754 1.0218534
25.167082 3.3835776 1.0218534
25.173571 3.3874466 1.0218534
25.179642 3.3919446 1.0218534
25.185234 3.3970261 1.0218534
25.19029 3.4026403 1.0218534
25.194761 3.4087315 1.0218534
25.198603 3.4152386 1.0218534
25.201775 3.4220965 1.0218534
25.204247 3.4292369 1.0218534
25.205992 3.4365883 1.0218534
25.206995 3.4440773 1.0218534
25.282091 3.4503582 1.0105431
25.28134 3.4653757 1.0105431
25.279093 3.480243 1.0105431
25.275373 3.4948118 1.0105431
25.270218 3.5089364 1.0105431
25.263678 3.522476 1.0105431
25.255817 3.5352945 1.0105431
25.246717 3.5472648 1.0105431
25.236469 3.5582666 1.0105431
25.225172 3.5681903 1.0105431
25.212942 3.5769367 1.0105431
25.199898 3.5844183 1.0105431
25.186174 3.5905604 1.0105431
25.171906 3.5953016 1.0105431
25.157234 3.5985947 1.0105431
25.142307 3.6004066 1.0105431
25.127274 3.6007192 1.0105431
25.112286 3.5995295 1.0105431
25.097488 3.5968494 1.0105431
25.083035 3.5927055 1.0105431
25.069067 3.5871394 1.0105431
25.055725 3.5802066 1.0105431
25.04314 3.5719764 1.0105431
25.031441 3.562531 1.0105431
25.020744 3.551965 1.0105431
25.011154 3.5403836 1.0105431
25.002768 3.5279026 1.0105431
24.99567 3.514647 1.0105431
24.989933 3.5007489 1.0105431
24.985609 3.4863474 1.0105431
24.982746 3.4715862 1.0105431
24.981371 3.4566131 1.0105431
24.981497 3.4415774 1.0105431
24.983124 3.4266293 1.0105431
24.986235 3.4119184 1.0105431
24.990799 3.3975916 1.0105431
24.996771 3.3837922 1.0105431
25.004091 3.3706577 1.0105431
25.012684 3.3583195 1.0105431
25.022467 3.3469009 1.0105431
25.033342 3.3365161 1.0105431
25.045198 3.3272688 1.0105431
25.057919 3.3192513 1.0105431
25.071375 3.3125439 1.0105431
25.085436 3.3072133 1.0105431
25.099957 3.303313 1.0105431
25.114796 3.3008819 1.0105431
25.129803 3.2999444 1.0105431
25.144829 3.3005097 1.0105431
25.159721 3.3025725 1.0105431
25.174335 3.3061116 1.0105431
25.188522 3.3110921 1.0105431
25.202143 3.3174641 1.0105431
25.215057 3.3251638 1.0105431
25.22714 3.3341146 1.0105431
25.238268 3.3442268 1.0105431
25.248331 3.3553994 1.0105431
25.257227 3.3675208 1.0105431
25.26487 3.3804698 1.0105431
25.271183 3.3941171 1.0105431
25.2761 3.4083266 1.0105431
25.279575 3.4229558 1.0105431
25.28157 3.4378588 1.0105431
25.355423 3.4503582 0.99181843
25.354305 3.4726965 0.99181843
25.350964 3.4948118 0.99181843
25.34543 3.5164828 0.99181843
25.337761 3.5374932 0.99181843
25.328032 3.5576332 0.99181843
25.316341 3.5767009 0.99181843
25.302805 3.5945065 0.99181843
25.28756 3.6108718 0.99181843
25.270756 3.6256332 0.99181843
25.252563 3.6386435 0.99181843
25.233162 3.6497722 0.99181843
25.212746 3.6589086 0.99181843
25.191521 3.6659613 0.99181843
25.169697 3.6708598 0.99181843
25.147493 3.6735549 0.99181843
25.125132 3.6740201 0.99181843
25.102837 3.6722503 0.99181843
25.080828 3.6682637 0.99181843
25.059328 3.6620996 0.99181843
25.038549 3.65382 0.99181843
25.018703 3.6435075 0.99181843
24.999985 3.6312652 0.99181843
24.982582 3.6172152 0.99181843
24.966669 3.6014979 0.99181843
24.952404 3.5842707 0.99181843
24.939932 3.5657053 0.99181843
24.929373 3.5459876 0.99181843
24.920837 3.5253143 0.99181843
24.914408 3.5038919 0.99181843
24.910149 3.481935 0.99181843
24.908102 3.4596622 0.99181843
24.908291 3.4372966 0.99181843
24.910711 3.4150617 0.99181843
24.915339 3.3931792 0.99181843
24.922127 3.3718681 0.99181843
24.931009 3.3513412 0.99181843
24.941898 3.3318038 0.99181843
24.954681 3.3134508 0.99181843
24.969233 3.2964656 0.99181843
24.985409 3.2810183 0.99181843
25.003044 3.2672629 0.99181843
25.021967 3.255337 0.99181843
25.041985 3.2453594 0.99181843
25.062899 3.2374303 0.99181843
25.084499 3.2316289 0.99181843
25.106571 3.2280126 0.99181843
25.128893 3.2266181 0.99181843
25.151245 3.227459 0.99181843
25.173399 3.2305272 0.99181843
25.195137 3.2357917 0.99181843
25.216242 3.2432001 0.99181843
25.2365 3.2526784 0.99181843
25.255711 3.264132 0.99181843
25.273684 3.277446 0.99181843
25.290236 3.2924879 0.99181843
25.305204 3.3091071 0.99181843
25.318439 3.3271377 0.99181843
25.329807 3.3463993 0.99181843
25.339195 3.3666999 0.99181843
25.346512 3.3878362 0.99181843
25.351679 3.4095972 0.99181843
25.35465 3.4317656 0.99181843
25.426519 3.4503582 0.96586621
25.425047 3.4797945 0.96586621
25.420643 3.5089364 0.96586621
25.413351 3.5374932 0.96586621
25.403244 3.5651796 0.96586621
25.390425 3.5917184 0.96586621
25.375019 3.6168449 0.96586621
25.357183 3.6403079 0.96586621
25.337093 3.6618731 0.96586621
25.314951 3.681325 0.96586621
25.290976 3.6984689 0.96586621
25.265411 3.7131338 0.96586621
25.238508 3.7251732 0.96586621
25.210539 3.7344668 0.96586621
25.181782 3.7409215 0.96586621
25.152523 3.744473 0.96586621
25.123056 3.745086 0.96586621
25.093676 3.742754 0.96586621
25.064674 3.7375007 0.96586621
25.036343 3.729378 0.96586621
25.008965 3.7184677 0.96586621
24.982811 3.7048786 0.96586621
24.958145 3.6887462 0.96586621
24.935213 3.6702321 0.96586621
24.914244 3.6495209 0.96586621
24.895447 3.6268198 0.96586621
24.879009 3.6023557 0.96586621
24.865097 3.5763726 0.96586621
24.853849 3.5491307 0.96586621
24.845375 3.5209019 0.96586621
24.839764 3.4919682 0.96586621
24.837069 3.4626186 0.96586621
24.837315 3.4331465 0.96586621
24.840504 3.4038465 0.96586621
24.846601 3.3750112 0.96586621
24.855549 3.3469288 0.96586621
24.867254 3.3198798 0.96586621
24.881601 3.2941344 0.96586621
24.898447 3.2699502 0.96586621
24.917622 3.2475681 0.96586621
24.938936 3.2272127 0.96586621
24.962177 3.2090864 0.96586621
24.98711 3.1933713 0.96586621
25.013489 3.1802235 0.96586621
25.041048 3.169775 0.96586621
25.069511 3.1621301 0.96586621
25.098597 3.1573648 0.96586621
25.128014 3.1555274 0.96586621
25.157465 3.1566355 0.96586621
25.186659 3.1606784 0.96586621
25.215303 3.1676157 0.96586621
25.243114 3.1773782 0.96586621
25.26981 3.189868 0.96586621
25.295124 3.2049608 0.96586621
25.318808 3.2225053 0.96586621
25.34062 3.2423265 0.96586621
25.360344 3.2642262 0.96586621
25.377783 3.2879858 0.96586621
25.392765 3.3133678 0.96586621
25.405136 3.3401184 0.96586621
25.414776 3.3679705 0.96586621
25.421587 3.3966458 0.96586621
25.425501 3.425858 0.96586621
25.494671 3.4503582 0.93294591
25.492857 3.486598 0.93294591
25.487434 3.522476 0.93294591
25.478456 3.5576332 0.93294591
25.466015 3.5917184 0.93294591
25.450232 3.6243916 0.93294591
25.431267 3.6553254 0.93294591
25.409307 3.6842117 0.93294591
25.384573 3.7107611 0.93294591
25.357313 3.7347088 0.93294591
25.327799 3.7558153 0.93294591
25.296324 3.7738698 0.93294591
25.263203 3.788692 0.93294591
25.228769 3.8001335 0.93294591
25.193365 3.8080802 0.93294591
25.157345 3.8124526 0.93294591
25.121067 3.8132071 0.93294591
25.084894 3.8103361 0.93294591
25.049191 3.8038685 0.93294591
25.014311 3.7938685 0.93294591
24.980604 3.7804365 0.93294591
24.948404 3.7637064 0.93294591
24.918037 3.7438455 0.93294591
24.889805 3.7210519 0.93294591
24.863989 3.6955538 0.93294591
24.840849 3.6676059 0.93294591
24.820612 3.6374872 0.93294591
24.803484 3.6054988 0.93294591
24.789637 3.5719602 0.93294591
24.779205 3.5372069 0.93294591
24.772295 3.5015855 0.93294591
24.768976 3.4654524 0.93294591
24.769281 3.4291685 0.93294591
24.773207 3.3930962 0.93294591
24.780714 3.3575962 0.93294591
24.791729 3.3230228 0.93294591
24.806139 3.289722 0.93294591
24.823803 3.2580261 0.93294591
24.844542 3.2282519 0.93294591
24.868149 3.2006969 0.93294591
24.89439 3.1756363 0.93294591
24.923002 3.1533208 0.93294591
24.953699 3.1339731 0.93294591
24.986174 3.1177866 0.93294591
25.020103 3.1049232 0.93294591
25.055145 3.0955112 0.93294591
25.090954 3.0896447 0.93294591
25.127169 3.0873823 0.93294591
25.163427 3.0887465 0.93294591
25.199369 3.093724 0.93294591
25.234636 3.1022649 0.93294591
25.268873 3.1142836 0.93294591
25.301739 3.1296604 0.93294591
25.332905 3.1482415 0.93294591
25.362061 3.1698411 0.93294591
25.388916 3.1942437 0.93294591
25.413198 3.2212052 0.93294591
25.434669 3.2504563 0.93294591
25.453112 3.2817049 0.93294591
25.468344 3.3146384 0.93294591
25.480211 3.3489282 0.93294591
25.488596 3.3842313 0.93294591
25.493414 3.4201951 0.93294591
25.559193 3.4503582 0.89338642
25.557056 3.4930396 0.89338642
25.550671 3.5352945 0.89338642
25.540098 3.5767009 0.89338642
25.525444 3.6168449 0.89338642
25.506857 3.6553254 0.89338642
25.48452 3.6917582 0.89338642
25.458656 3.7257786 0.89338642
25.429527 3.7570472 0.89338642
25.397421 3.7852516 0.89338642
25.362659 3.8101096 0.89338642
25.32559 3.8313735 0.89338642
25.286583 3.84883 0.89338642
25.246029 3.8623054 0.89338642
25.204332 3.8716645 0.89338642
25.161907 3.8768141 0.89338642
25.119183 3.8777027 0.89338642
25.076582 3.8743217 0.89338642
25.034531 3.8667042 0.89338642
24.99345 3.8549268 0.89338642
24.953753 3.8391073 0.89338642
24.915831 3.8194034 0.89338642
24.880066 3.7960122 0.89338642
24.846815 3.7691672 0.89338642
24.81641 3.7391369 0.89338642
24.789156 3.7062211 0.89338642
24.765324 3.6707489 0.89338642
24.745152 3.6330748 0.89338642
24.72884 3.5935748 0.89338642
24.716555 3.552644 0.89338642
24.708418 3.5106912 0.89338642
24.70451 3.4681354 0.89338642
24.704868 3.4254019 0.89338642
24.709492 3.3829181 0.89338642
24.718334 3.3411078 0.89338642
24.731306 3.3003893 0.89338642
24.748278 3.2611692 0.89338642
24.769081 3.2238393 0.89338642
24.793507 3.1887729 0.89338642
24.82131 3.1563201 0.89338642
24.852215 3.1268051 0.89338642
24.885914 3.100523 0.89338642
24.922066 3.0777364 0.89338642
24.960314 3.0586729 0.89338642
25.000273 3.0435228 0.89338642
25.041544 3.0324378 0.89338642
25.083717 3.0255284 0.89338642
25.126369 3.0228639 0.89338642
25.169073 3.0244708 0.89338642
25.211405 3.030333 0.89338642
25.252939 3.0403919 0.89338642
25.293261 3.0545471 0.89338642
25.331968 3.0726569 0.89338642
25.368675 3.0945408 0.89338642
25.403013 3.1199799 0.89338642
25.434641 3.1487198 0.89338642
25.463242 3.1804736 0.89338642
25.488527 3.2149241 0.89338642
25.510248 3.2517271 0.89338642
25.528187 3.2905145 0.89338642
25.542164 3.3308992 0.89338642
25.55204 3.3724773 0.89338642
25.557714 3.4148338 0.89338642
25.619444 3.4503582 0.84758294
25.617008 3.4990547 0.84758294
25.609722 3.5472648 0.84758294
25.597658 3.5945065 0.84758294
25.58094 3.6403081 0.84758294
25.559732 3.6842117 0.84758294
25.534246 3.7257786 0.84758294
25.50474 3.7645936 0.84758294
25.471504 3.8002691 0.84758294
25.434874 3.8324482 0.84758294
25.395214 3.8608096 0.84758294
25.352921 3.8850698 0.84758294
25.308416 3.9049869 0.84758294
25.262146 3.920361 0.84758294
25.214573 3.9310393 0.84758294
25.16617 3.9369147 0.84758294
25.117424 3.9379287 0.84758294
25.068819 3.9340708 0.84758294
25.020842 3.92538 0.84758294
24.973972 3.911943 0.84758294
24.928679 3.8938937 0.84758294
24.885412 3.871413 0.84758294
24.844608 3.8447254 0.84758294
24.806671 3.8140972 0.84758294
24.771982 3.7798345 0.84758294
24.740885 3.74228 0.84758294
24.713694 3.7018087 0.84758294
24.69068 3.6588252 0.84758294
24.67207 3.6137583 0.84758294
24.658054 3.567059 0.84758294
24.648769 3.5191939 0.84758294
24.64431 3.4706407 0.84758294
24.64472 3.421885 0.84758294
24.649994 3.3734136 0.84758294
24.660082 3.3257113 0.84758294
24.674883 3.2792542 0.84758294
24.694246 3.2345068 0.84758294
24.717981 3.191916 0.84758294
24.74585 3.1519077 0.84758294
24.777571 3.1148813 0.84758294
24.812832 3.0812068 0.84758294
24.851278 3.0512207 0.84758294
24.892527 3.0252225 0.84758294
24.936165 3.0034726 0.84758294
24.981754 2.9861875 0.84758294
25.028843 2.9735403 0.84758294
25.07696 2.9656572 0.84758294
25.125622 2.9626172 0.84758294
25.174345 2.9644504 0.84758294
25.222641 2.9711387 0.84758294
25.270029 2.9826152 0.84758294
25.316034 2.9987652 0.84758294
25.360197 3.0194273 0.84758294
25.402077 3.0443952 0.84758294
25.441256 3.0734193 0.84758294
25.477339 3.1062098 0.84758294
25.50997 3.1424389 0.84758294
25.53882 3.1817443 0.84758294
25.563602 3.2237339 0.84758294
25.58407 3.2679877 0.84758294
25.600016 3.3140638 0.84758294
25.611282 3.3615015 0.84758294
25.617758 3.4098272 0.84758294
25.674822 3.4503582 0.79599321
25.67211 3.5045834 0.79599321
25.663996 3.5582666 0.79599321
25.650562 3.6108718 0.79599321
25.631947 3.6618731 0.79599321
25.60833 3.7107611 0.79599321
25.579952 3.7570472 0.79599321
25.547094 3.8002691 0.79599321
25.510086 3.8399947 0.79599321
25.469297 3.8758271 0.79599321
25.425135 3.9074085 0.79599321
25.37804 3.934423 0.79599321
25.328484 3.9566011 0.79599321
25.27696 3.9737208 0.79599321
25.223986 3.9856114 0.79599321
25.170088 3.9921539 0.79599321
25.115807 3.9932828 0.79599321
25.061684 3.988987 0.79599321
25.008259 3.9793096 0.79599321
24.95607 3.9643469 0.79599321
24.905634 3.9442487 0.79599321
24.857456 3.9192157 0.79599321
24.812017 3.889498 0.79599321
24.769773 3.8553927 0.79599321
24.731146 3.8172402 0.79599321
24.69652 3.7754221 0.79599321
24.666243 3.7303562 0.79599321
24.640614 3.6824925 0.79599321
24.619892 3.6323094 0.79599321
24.604284 3.5803082 0.79599321
24.593946 3.5270088 0.79599321
24.58898 3.4729433 0.79599321
24.589436 3.4186523 0.79599321
24.59531 3.3646781 0.79599321
24.606544 3.3115599 0.79599321
24.623024 3.2598286 0.79599321
24.644587 3.210001 0.79599321
24.671015 3.162575 0.79599321
24.702047 3.1180243 0.79599321
24.737371 3.0767944 0.79599321
24.776634 3.0392966 0.79599321
24.819447 3.0059063 0.79599321
24.865377 2.9769568 0.79599321
24.913969 2.9527373 0.79599321
24.964735 2.9334898 0.79599321
25.01717 2.9194069 0.79599321
25.070749 2.9106288 0.79599321
25.124935 2.9072437 0.79599321
25.17919 2.9092851 0.79599321
25.232971 2.9167325 0.79599321
25.285738 2.929512 0.79599321
25.336966 2.9474955 0.79599321
25.386143 2.9705036 0.79599321
25.432777 2.998306 0.79599321
25.476402 3.0306253 0.79599321
25.516584 3.0671384 0.79599321
25.552919 3.1074805 0.79599321
25.585045 3.1512485 0.79599321
25.61264 3.198005 0.79599321
25.635431 3.247283 0.79599321
25.653189 3.2985902 0.79599321
25.665733 3.3514137 0.79599321
25.672945 3.4052258 0.79599321
25.724773 3.4503582 0.73913264
25.721809 3.5095701 0.73913264
25.71295 3.5681903 0.73913264
25.698282 3.6256332 0.73913264
25.677954 3.681325 0.73913264
25.652166 3.7347088 0.73913264
25.621178 3.7852516 0.73913264
25.585299 3.8324482 0.73913264
25.544888 3.8758271 0.73913264
25.500347 3.9149549 0.73913264
25.452124 3.9494405 0.73913264
25.400698 3.9789395 0.73913264
25.346582 4.0031571 0.73913264
25.290321 4.0218515 0.73913264
25.232475 4.0348353 0.73913264
25.17362 4.0419793 0.73913264
25.114347 4.0432124 0.73913264
25.055248 4.0385213 0.73913264
24.99691 4.0279541 0.73913264
24.93992 4.0116153 0.73913264
24.884846 3.9896688 0.73913264
24.832239 3.9623337 0.73913264
24.782621 3.929883 0.73913264
24.736494 3.8926411 0.73913264
24.694313 3.85098 0.73913264
24.656502 3.8053162 0.73913264
24.62344 3.7561059 0.73913264
24.595455 3.7038403 0.73913264
24.572828 3.6490424 0.73913264
24.555784 3.5922589 0.73913264
24.544495 3.5340579 0.73913264
24.539072 3.4750204 0.73913264
24.53957 3.4157367 0.73913264
24.545984 3.3567986 0.73913264
24.55825 3.2987955 0.73913264
24.576246 3.2423067 0.73913264
24.599792 3.187897 0.73913264
24.628653 3.1361094 0.73913264
24.662537 3.0874617 0.73913264
24.701111 3.0424399 0.73913264
24.743984 3.0014939 0.73913264
24.790733 2.9650328 0.73913264
24.840889 2.9334209 0.73913264
24.893948 2.9069741 0.73913264
24.949385 2.8859568 0.73913264
25.006641 2.8705785 0.73913264
25.065147 2.8609931 0.73913264
25.124317 2.8572967 0.73913264
25.183561 2.8595259 0.73913264
25.242287 2.8676584 0.73913264
25.299908 2.881613 0.73913264
25.355846 2.9012504 0.73913264
25.409546 2.9263744 0.73913264
25.460468 2.9567337 0.73913264
25.508106 2.9920251 0.73913264
25.551983 3.0318961 0.73913264
25.59166 3.0759482 0.73913264
25.62674 3.1237411 0.73913264
25.656874 3.1747978 0.73913264
25.681759 3.2286074 0.73913264
25.701149 3.2846329 0.73913264
25.714849 3.3423142 0.73913264
25.722723 3.4010751 0.73913264
25.768797 3.4503582 0.67756939
25.765615 3.5139651 0.67756939
25.756098 3.5769367 0.67756939
25.740341 3.6386435 0.67756939
25.718504 3.6984689 0.67756939
25.690802 3.7558153 0.67756939
25.657513 3.8101096 0.67756939
25.618971 3.8608096 0.67756939
25.57556 3.9074085 0.67756939
25.527714 3.9494405 0.67756939
25.47591 3.986486 0.67756939
25.420666 4.0181746 0.67756939
25.362535 4.0441899 0.67756939
25.302097 4.0642715 0.67756939
25.239958 4.0782194 0.67756939
25.176735 4.0858936 0.67756939
25.113062 4.0872183 0.67756939
25.049576 4.0821791 0.67756939
24.986908 4.0708275 0.67756939
24.925688 4.0532761 0.67756939
24.866526 4.0297003 0.67756939
24.810013 4.0003362 0.67756939
24.756714 3.9654768 0.67756939
24.707161 3.9254706 0.67756939
24.66185 3.8807173 0.67756939
24.621233 3.8316638 0.67756939
24.585716 3.7788005 0.67756939
24.555653 3.7226555 0.67756939
24.531347 3.66379 0.67756939
24.513039 3.6027918 0.67756939
24.50091 3.5402706 0.67756939
24.495085 3.476851 0.67756939
24.495621 3.4131668 0.67756939
24.502512 3.349854 0.67756939
24.515688 3.2875454 0.67756939
24.535019 3.2268639 0.67756939
24.560312 3.1684151 0.67756939
24.591314 3.1127834 0.67756939
24.627714 3.0605249 0.67756939
24.669151 3.0121613 0.67756939
24.715208 2.9681761 0.67756939
24.765427 2.9290085 0.67756939
24.819305 2.89505 0.67756939
24.876303 2.8666403 0.67756939
24.935854 2.8440628 0.67756939
24.99736 2.827543 0.67756939
25.060209 2.8172464 0.67756939
25.123772 2.8132753 0.67756939
25.187412 2.81567 0.67756939
25.250498 2.8244061 0.67756939
25.312395 2.8393967 0.67756939
25.372486 2.8604918 0.67756939
25.430172 2.8874805 0.67756939
25.484875 2.9200933 0.67756939
25.536047 2.9580045 0.67756939
25.583181 3.0008349 0.67756939
25.625803 3.0481567 0.67756939
25.663486 3.0994973 0.67756939
25.695858 3.1543436 0.67756939
25.722591 3.2121477 0.67756939
25.74342 3.2723317 0.67756939
25.758137 3.3342946 0.67756939
25.766594 3.3974171 0.67756939
25.806456 3.4503582 0.61191857
25.803085 3.5177248 0.61191857
25.793005 3.5844183 0.61191857
25.776318 3.6497722 0.61191857
25.753189 3.7131338 0.61191857
25.72385 3.7738698 0.61191857
25.688595 3.8313732 0.61191857
25.647774 3.8850698 0.61191857
25.601797 3.934423 0.61191857
25.551123 3.9789395 0.61191857
25.496256 4.0181746 0.61191857
25.437748 4.0517359 0.61191857
25.376181 4.079289 0.61191857
25.312172 4.1005578 0.61191857
25.246359 4.1153297 0.61191857
25.179399 4.1234579 0.61191857
25.111963 4.1248608 0.61191857
25.044724 4.119524 0.61191857
24.978352 4.107501 0.61191857
24.913513 4.088912 0.61191857
24.850855 4.0639429 0.61191857
24.791 4.0328431 0.61191857
24.73455 3.9959235 0.61191857
24.68207 3.9535527 0.61191857
24.634081 3.9061542 0.61191857
24.591063 3.8542013 0.61191857
24.553446 3.7982135 0.61191857
24.521606 3.7387502 0.61191857
24.495865 3.6764052 0.61191857
24.476473 3.6118016 0.61191857
24.463629 3.5455849 0.61191857
24.45746 3.4784169 0.61191857
24.458027 3.4109685 0.61191857
24.465324 3.3439136 0.61191857
24.47928 3.2779222 0.61191857
24.499754 3.2136538 0.61191857
24.526543 3.1517506 0.61191857
24.559376 3.0928307 0.61191857
24.597929 3.0374832 0.61191857
24.641813 2.9862611 0.61191857
24.690594 2.939676 0.61191857
24.74378 2.8981934 0.61191857
24.800842 2.8622279 0.61191857
24.86121 2.832139 0.61191857
24.92428 2.8082268 0.61191857
24.989422 2.7907307 0.61191857
25.055984 2.7798254 0.61191857
25.123304 2.7756197 0.61191857
25.190708 2.778156 0.61191857
25.257521 2.7874086 0.61191857
25.323076 2.8032851 0.61191857
25.386721 2.8256269 0.61191857
25.447815 2.8542109 0.61191857
25.505751 2.8887513 0.61191857
25.55995 2.9289031 0.61191857
25.609869 2.9742651 0.61191857
25.655008 3.024384 0.61191857
25.694921 3.0787592 0.61191857
25.729204 3.1368473 0.61191857
25.757519 3.1980679 0.61191857
25.779579 3.2618091 0.61191857
25.795166 3.3274343 0.61191857
25.804123 3.3942878 0.61191857
25.837372 3.4503582 0.54283613
25.833847 3.5208113 0.54283613
25.823305 3.5905604 0.54283613
25.805853 3.6589086 0.54283613
25.781666 3.7251732 0.54283613
25.750982 3.788692 0.54283613
25.714111 3.84883 0.54283613
25.671421 3.9049869 0.54283613
25.623337 3.9566011 0.54283613
25.570341 4.0031571 0.54283613
25.51296 4.0441899 0.54283613
25.451773 4.079289 0.54283613
25.387384 4.1081042 0.54283613
25.320442 4.1303473 0.54283613
25.251614 4.1457963 0.54283613
25.181585 4.1542969 0.54283613
25.111059 4.1557636 0.54283613
25.040739 4.1501822 0.54283613
24.971329 4.1376085 0.54283613
24.903519 4.1181684 0.54283613
24.837988 4.0920553 0.54283613
24.775393 4.0595307 0.54283613
24.716356 4.0209193 0.54283613
24.66147 3.9766073 0.54283613
24.611282 3.927037 0.54283613
24.566294 3.872704 0.54283613
24.526955 3.814151 0.54283613
24.493656 3.7519631 0.54283613
24.466734 3.6867619 0.54283613
24.446455 3.6191983 0.54283613
24.433022 3.549948 0.54283613
24.426571 3.4797025 0.54283613
24.427162 3.4091637 0.54283613
24.434795 3.3390367 0.54283613
24.44939 3.2700219 0.54283613
24.470802 3.2028089 0.54283613
24.498817 3.1380694 0.54283613
24.533155 3.0764501 0.54283613
24.573475 3.0185668 0.54283613
24.61937 2.964998 0.54283613
24.670385 2.9162784 0.54283613
24.726007 2.8728952 0.54283613
24.785685 2.8352821 0.54283613
24.848818 2.8038144 0.54283613
24.914778 2.7788067 0.54283613
24.982904 2.760509 0.54283613
25.052519 2.749104 0.54283613
25.122921 2.7447059 0.54283613
25.193413 2.7473583 0.54283613
25.263288 2.7570348 0.54283613
25.331846 2.7736387 0.54283613
25.398405 2.797004 0.54283613
25.462299 2.8268976 0.54283613
25.52289 2.8630207 0.54283613
25.579571 2.9050121 0.54283613
25.631777 2.9524524 0.54283613
25.678988 3.0048676 0.54283613
25.720728 3.061734 0.54283613
25.756582 3.1224835 0.54283613
25.786194 3.1865089 0.54283613
25.809263 3.2531705 0.54283613
25.825565 3.3218026 0.54283613
25.834932 3.3917189 0.54283613
25.861238 3.4503582 0.47101235
25.857594 3.5231938 0.47101235
25.846695 3.5953016 0.47101235
25.828653 3.6659613 0.47101235
25.803646 3.7344668 0.47101235
25.771925 3.8001335 0.47101235
25.733809 3.8623054 0.47101235
25.689672 3.920361 0.47101235
25.639963 3.9737208 0.47101235
25.585175 4.0218515 0.47101235
25.525856 4.0642715 0.47101235
25.462597 4.1005578 0.47101235
25.396032 4.1303473 0.47101235
25.326826 4.1533427 0.47101235
25.255669 4.1693144 0.47101235
25.183273 4.178102 0.47101235
25.110363 4.1796188 0.47101235
25.037664 4.1738486 0.47101235
24.965906 4.1608496 0.47101235
24.895803 4.1407518 0.47101235
24.828056 4.1137557 0.47101235
24.763344 4.0801311 0.47101235
24.702312 4.0402141 0.47101235
24.645571 3.9944036 0.47101235
24.593685 3.943157 0.47101235
24.547174 3.8869867 0.47101235
24.506504 3.8264537 0.47101235
24.47208 3.7621627 0.47101235
24.444248 3.6947563 0.47101235
24.423283 3.6249082 0.47101235
24.409395 3.5533159 0.47101235
24.402725 3.4806948 0.47101235
24.403339 3.4077706 0.47101235
24.411228 3.3352721 0.47101235
24.426317 3.2639234 0.47101235
24.448454 3.1944375 0.47101235
24.477417 3.1275086 0.47101235
24.512917 3.0638056 0.47101235
24.554598 3.0039649 0.47101235
24.602045 2.9485843 0.47101235
24.654785 2.8982172 0.47101235
24.71229 2.8533671 0.47101235
24.773985 2.8144817 0.47101235
24.839252 2.78195 0.47101235
24.907444 2.7560966 0.47101235
24.977875 2.7371802 0.47101235
25.049841 2.7253895 0.47101235
25.122625 2.7208426 0.47101235
25.195501 2.7235847 0.47101235
25.267738 2.7335882 0.47101235
25.338617 2.7507536 0.47101235
25.407427 2.7749093 0.47101235
25.47348 2.8058138 0.47101235
25.536119 2.8431582 0.47101235
25.594719 2.8865697 0.47101235
25.648689 2.9356146 0.47101235
25.697496 2.9898024 0.47101235
25.740648 3.0485916 0.47101235
25.777716 3.1113956 0.47101235
25.808327 3.1775861 0.47101235
25.832178 3.2465022 0.47101235
25.84903 3.3174551 0.47101235
25.858715 3.3897359 0.47101235
25.877813 3.4503582 0.39716488
25.874086 3.5248485 0.39716488
25.86294 3.5985947 0.39716488
25.844488 3.6708598 0.39716488
25.818913 3.7409215 0.39716488
25.786472 3.8080802 0.39716488
25.747488 3.8716645 0.39716488
25.702351 3.9310393 0.39716488
25.651512 3.9856114 0.39716488
25.595478 4.0348353 0.39716488
25.534811 4.0782194 0.39716488
25.470116 4.1153297 0.39716488
25.402039 4.1457963 0.39716488
25.331259 4.1693144 0.39716488
25.258486 4.1856489 0.39716488
25.184446 4.1946363 0.39716488
25.109879 4.196187 0.39716488
25.035528 4.1902857 0.39716488
24.962139 4.1769915 0.39716488
24.890444 4.1564369 0.39716488
24.821159 4.1288276 0.39716488
24.754976 4.0944395 0.39716488
24.692558 4.0536156 0.39716488
24.634527 4.0067639 0.39716488
24.581463 3.9543531 0.39716488
24.533895 3.8969066 0.39716488
24.492302 3.8349981 0.39716488
24.457096 3.7692466 0.39716488
24.428629 3.700309 0.39716488
24.407188 3.6288738 0.39716488
24.392986 3.555655 0.39716488
24.386164 3.481384 0.39716488
24.386791 3.4068031 0.39716488
24.394861 3.3326573 0.39716488
24.410292 3.2596877 0.39716488
24.432932 3.1886232 0.39716488
24.462551 3.1201737 0.39716488
24.498857 3.0550232 0.39716488
24.541487 2.9938231 0.39716488
24.590014 2.9371843 0.39716488
24.643951 2.885673 0.39716488
24.702763 2.8398037 0.39716488
24.765858 2.800035 0.39716488
24.832609 2.7667642 0.39716488
24.902349 2.7403235 0.39716488
24.97438 2.7209773 0.39716488
25.047983 2.7089186 0.39716488
25.122421 2.7042685 0.39716488
25.196951 2.7070727 0.39716488
25.27083 2.7173038 0.39716488
25.343319 2.734859 0.39716488
25.413691 2.7595634 0.39716488
25.481247 2.7911701 0.39716488
25.545309 2.8293631 0.39716488
25.605238 2.8737609 0.39716488
25.660437 2.9239197 0.39716488
25.710352 2.9793386 0.39716488
25.754484 3.0394638 0.39716488
25.792393 3.1036944 0.39716488
25.8237 3.1713889 0.39716488
25.848093 3.2418706 0.39716488
25.865328 3.3144357 0.39716488
25.875233 3.3883586 0.39716488
25.886934 3.4503582 0.3220315
25.88316 3.525759 0.3220315
25.871878 3.6004066 0.3220315
25.853201 3.6735549 0.3220315
25.827312 3.744473 0.3220315
25.794476 3.8124526 0.3220315
25.755014 3.8768141 0.3220315
25.709326 3.9369147 0.3220315
25.657866 3.9921539 0.3220315
25.601149 4.0419793 0.3220315
25.53974 4.0858936 0.3220315
25.474253 4.1234579 0.3220315
25.405342 4.1542969 0.3220315
25.333698 4.178102 0.3220315
25.260036 4.1946363 0.3220315
25.185091 4.2037334 0.3220315
25.109613 4.2053032 0.3220315
25.034353 4.1993303 0.3220315
24.960068 4.1858735 0.3220315
24.887495 4.1650677 0.3220315
24.817364 4.1371207 0.3220315
24.750372 4.1023121 0.3220315
24.687191 4.0609889 0.3220315
24.62845 4.0135651 0.3220315
24.574738 3.9605136 0.3220315
24.526588 3.9023647 0.3220315
24.484486 3.8396997 0.3220315
24.448851 3.7731445 0.3220315
24.420036 3.7033641 0.3220315
24.398333 3.6310558 0.3220315
24.383957 3.556942 0.3220315
24.377052 3.4817634 0.3220315
24.377687 3.4062707 0.3220315
24.385855 3.3312187 0.3220315
24.401474 3.2573571 0.3220315
